-0.765402019024,-0.739963889122,-0.711346030235,-0.685907900333,-0.660469770432,-0.63503164053,-0.609593510628,-0.580975651741,-0.555537521839,-0.530099391937,-0.504661262035,-0.476043343544,-0.450605243444,-0.425167113543,-0.399728983641,-0.374290853739,-0.34567296505,-0.320234835148,-0.294796735048,-0.269358605146,-0.243920490146,-0.215302631259,-0.189864501357,-0.164426371455,-0.138988241553,-0.138988241553,-0.158988237381,-0.158988237381,-0.158988237381,-0.158988237381,-0.158988237381,-0.158988237381,-0.158988237381,-0.158988237381,-0.158988237381,-0.158988237381,-0.158988237381,-0.158988237381,-0.158988237381,-0.158988237381,-0.158988237381,-0.158988237381,-0.158988237381,-0.158988237381,-0.158988237381,-0.158988237381,-0.158988237381,-0.158988237381,-0.158988237381,-0.158988237381,-0.158988237381,-0.158988237381,-0.158988237381,-0.158988237381,-0.158988237381,-0.158988237381,-0.158988237381,-0.158988237381,-0.158988237381,-0.158988237381,-0.158988237381,-0.158988237381,-0.158988237381,-0.158988237381,-0.158988237381,-0.158988237381,-0.158988237381,-0.158988237381,-0.158988237381,-0.158988237381,-0.158988237381,-0.158988237381,-0.158988237381,-0.158988237381,-0.158988237381,-0.158988237381,-0.158988237381,-0.158988237381,-0.158988237381,-0.158988237381,-0.158988237381,-0.158988237381,-0.158988237381,-0.158988237381,-0.158988237381,-0.158988237381,-0.158988237381,-0.158988237381,-0.158988237381,-0.158988237381,-0.158988237381,-0.158988237381,-0.158988237381,-0.158988237381,-0.158988237381,-0.158988237381,-0.158988237381,-0.158988237381,-0.158988237381,-0.158988237381,-0.158988237381,-0.158988237381,-0.158988237381,-0.158988237381,-0.158988237381,-0.158988237381,-0.158988237381,-0.158988237381,-0.158988237381,-0.158988237381,-0.158988237381,-0.158988237381,-0.158988237381,-0.158988237381,-0.158988237381,-0.158988237381,-0.158988237381,-0.158988237381,-0.158988237381,-0.158988237381,-0.158988237381,-0.158988237381,-0.158988237381,-0.158988237381,-0.158988237381,-0.158988237381,-0.158988237381,-0.158988237381,-0.158988237381,-0.158988237381,-0.158988237381,-0.158988237381,-0.158988237381,-0.158988237381,-0.158988237381,-0.158988237381,-0.158988237381,-0.158988237381,-0.158988237381,-0.158988237381,-0.158988237381,-0.158988237381,-0.158988237381,-0.158988237381,-0.158988237381,-0.158988237381,-0.158988237381,-0.158988237381,-0.158988237381,-0.158988237381,-0.158988237381,-0.158988237381,-0.158988237381,-0.158988237381,-0.158988237381,-0.158988237381,-0.158988237381,-0.158988237381,-0.158988237381,-0.158988237381,-0.158988237381,-0.158988237381,-0.158988237381,-0.158988237381,-0.158988237381,-0.158988237381,-0.158988237381,-0.158988237381,-0.158988237381,-0.158988237381,-0.158988237381,-0.158988237381,-0.158988237381,-0.158988237381,-0.138988241553,-0.138988241553,-0.164426371455,-0.189864501357,-0.215302631259,-0.243920490146,-0.269358605146,-0.294796735048,-0.320234835148,-0.34567296505,-0.374290853739,-0.399728983641,-0.425167113543,-0.450605243444,-0.476043343544,-0.504661262035,-0.530099391937,-0.555537521839,-0.580975651741,-0.609593510628,-0.63503164053,-0.660469770432,-0.685907900333,-0.711346030235,-0.739963889122,-0.765402019024
-0.765402019024,-0.739963889122,-0.711346030235,-0.685907900333,-0.660469770432,-0.63503164053,-0.606413781643,-0.580975651741,-0.555537521839,-0.530099391937,-0.501481533051,-0.476043343544,-0.450605243444,-0.425167113543,-0.396549224854,-0.371111094952,-0.34567296505,-0.320234835148,-0.294796735048,-0.266178816557,-0.240740761161,-0.215302631259,-0.189864501357,-0.161246582866,-0.138988241553,-0.135808512568,-0.155808508396,-0.155808508396,-0.155808508396,-0.155808508396,-0.155808508396,-0.155808508396,-0.155808508396,-0.155808508396,-0.155808508396,-0.155808508396,-0.155808508396,-0.155808508396,-0.155808508396,-0.155808508396,-0.155808508396,-0.155808508396,-0.155808508396,-0.155808508396,-0.155808508396,-0.155808508396,-0.155808508396,-0.155808508396,-0.155808508396,-0.155808508396,-0.155808508396,-0.155808508396,-0.155808508396,-0.155808508396,-0.155808508396,-0.155808508396,-0.155808508396,-0.155808508396,-0.155808508396,-0.155808508396,-0.155808508396,-0.155808508396,-0.155808508396,-0.155808508396,-0.155808508396,-0.155808508396,-0.155808508396,-0.155808508396,-0.155808508396,-0.155808508396,-0.155808508396,-0.155808508396,-0.155808508396,-0.155808508396,-0.155808508396,-0.155808508396,-0.155808508396,-0.155808508396,-0.155808508396,-0.155808508396,-0.155808508396,-0.155808508396,-0.155808508396,-0.155808508396,-0.155808508396,-0.155808508396,-0.155808508396,-0.155808508396,-0.155808508396,-0.155808508396,-0.155808508396,-0.155808508396,-0.155808508396,-0.155808508396,-0.155808508396,-0.155808508396,-0.155808508396,-0.155808508396,-0.155808508396,-0.155808508396,-0.155808508396,-0.155808508396,-0.155808508396,-0.155808508396,-0.155808508396,-0.155808508396,-0.155808508396,-0.155808508396,-0.155808508396,-0.155808508396,-0.155808508396,-0.155808508396,-0.155808508396,-0.155808508396,-0.155808508396,-0.155808508396,-0.155808508396,-0.155808508396,-0.155808508396,-0.155808508396,-0.155808508396,-0.155808508396,-0.155808508396,-0.155808508396,-0.155808508396,-0.155808508396,-0.155808508396,-0.155808508396,-0.155808508396,-0.155808508396,-0.155808508396,-0.155808508396,-0.155808508396,-0.155808508396,-0.155808508396,-0.155808508396,-0.155808508396,-0.155808508396,-0.155808508396,-0.155808508396,-0.155808508396,-0.155808508396,-0.155808508396,-0.155808508396,-0.155808508396,-0.155808508396,-0.155808508396,-0.155808508396,-0.155808508396,-0.155808508396,-0.155808508396,-0.155808508396,-0.155808508396,-0.155808508396,-0.155808508396,-0.155808508396,-0.155808508396,-0.155808508396,-0.155808508396,-0.155808508396,-0.155808508396,-0.155808508396,-0.155808508396,-0.155808508396,-0.155808508396,-0.155808508396,-0.155808508396,-0.155808508396,-0.155808508396,-0.155808508396,-0.155808508396,-0.155808508396,-0.155808508396,-0.155808508396,-0.135808512568,-0.138988241553,-0.161246582866,-0.189864501357,-0.215302631259,-0.240740761161,-0.266178816557,-0.294796735048,-0.320234835148,-0.34567296505,-0.371111094952,-0.396549224854,-0.425167113543,-0.450605243444,-0.476043343544,-0.501481533051,-0.530099391937,-0.555537521839,-0.580975651741,-0.606413781643,-0.63503164053,-0.660469770432,-0.685907900333,-0.711346030235,-0.739963889122,-0.765402019024
-0.765402019024,-0.736784160137,-0.711346030235,-0.685907900333,-0.660469770432,-0.631851911545,-0.606413781643,-0.580975651741,-0.555537521839,-0.526919603348,-0.501481533051,-0.476043343544,-0.450605243444,-0.421987354755,-0.396549224854,-0.371111094952,-0.34567296505,-0.317055076361,-0.291616976261,-0.266178816557,-0.237560972571,-0.212122842669,-0.186684712768,-0.161246582866,-0.135808512568,-0.132628723979,-0.152628719807,-0.152628719807,-0.152628719807,-0.152628719807,-0.152628719807,-0.152628719807,-0.152628719807,-0.152628719807,-0.152628719807,-0.152628719807,-0.152628719807,-0.152628719807,-0.152628719807,-0.152628719807,-0.152628719807,-0.152628719807,-0.152628719807,-0.152628719807,-0.152628719807,-0.152628719807,-0.152628719807,-0.152628719807,-0.152628719807,-0.152628719807,-0.152628719807,-0.152628719807,-0.152628719807,-0.152628719807,-0.152628719807,-0.152628719807,-0.152628719807,-0.152628719807,-0.152628719807,-0.152628719807,-0.152628719807,-0.152628719807,-0.152628719807,-0.152628719807,-0.152628719807,-0.152628719807,-0.152628719807,-0.152628719807,-0.152628719807,-0.152628719807,-0.152628719807,-0.152628719807,-0.152628719807,-0.152628719807,-0.152628719807,-0.152628719807,-0.152628719807,-0.152628719807,-0.152628719807,-0.152628719807,-0.152628719807,-0.152628719807,-0.152628719807,-0.152628719807,-0.152628719807,-0.152628719807,-0.152628719807,-0.152628719807,-0.152628719807,-0.152628719807,-0.152628719807,-0.152628719807,-0.152628719807,-0.152628719807,-0.152628719807,-0.152628719807,-0.152628719807,-0.152628719807,-0.152628719807,-0.152628719807,-0.152628719807,-0.152628719807,-0.152628719807,-0.152628719807,-0.152628719807,-0.152628719807,-0.152628719807,-0.152628719807,-0.152628719807,-0.152628719807,-0.152628719807,-0.152628719807,-0.152628719807,-0.152628719807,-0.152628719807,-0.152628719807,-0.152628719807,-0.152628719807,-0.152628719807,-0.152628719807,-0.152628719807,-0.152628719807,-0.152628719807,-0.152628719807,-0.152628719807,-0.152628719807,-0.152628719807,-0.152628719807,-0.152628719807,-0.152628719807,-0.152628719807,-0.152628719807,-0.152628719807,-0.152628719807,-0.152628719807,-0.152628719807,-0.152628719807,-0.152628719807,-0.152628719807,-0.152628719807,-0.152628719807,-0.152628719807,-0.152628719807,-0.152628719807,-0.152628719807,-0.152628719807,-0.152628719807,-0.152628719807,-0.152628719807,-0.152628719807,-0.152628719807,-0.152628719807,-0.152628719807,-0.152628719807,-0.152628719807,-0.152628719807,-0.152628719807,-0.152628719807,-0.152628719807,-0.152628719807,-0.152628719807,-0.152628719807,-0.152628719807,-0.152628719807,-0.152628719807,-0.152628719807,-0.152628719807,-0.152628719807,-0.152628719807,-0.152628719807,-0.152628719807,-0.152628719807,-0.152628719807,-0.152628719807,-0.132628723979,-0.135808512568,-0.161246582866,-0.186684712768,-0.212122842669,-0.237560972571,-0.266178816557,-0.291616976261,-0.317055076361,-0.34567296505,-0.371111094952,-0.396549224854,-0.421987354755,-0.450605243444,-0.476043343544,-0.501481533051,-0.526919603348,-0.555537521839,-0.580975651741,-0.606413781643,-0.631851911545,-0.660469770432,-0.685907900333,-0.711346030235,-0.736784160137,-0.765402019024
-0.765402019024,-0.736784160137,-0.711346030235,-0.685907900333,-0.660469770432,-0.631851911545,-0.606413781643,-0.580975651741,-0.55235773325,-0.526919603348,-0.501481533051,-0.476043343544,-0.447425484657,-0.421987354755,-0.396549224854,-0.367931336164,-0.342493206263,-0.317055076361,-0.291616976261,-0.262999087572,-0.237560972571,-0.212122842669,-0.183504983783,-0.158066853881,-0.132628723979,-0.132628723979,-0.152628719807,-0.152628719807,-0.152628719807,-0.152628719807,-0.152628719807,-0.152628719807,-0.152628719807,-0.152628719807,-0.152628719807,-0.152628719807,-0.152628719807,-0.152628719807,-0.152628719807,-0.152628719807,-0.152628719807,-0.152628719807,-0.152628719807,-0.152628719807,-0.152628719807,-0.152628719807,-0.152628719807,-0.152628719807,-0.152628719807,-0.152628719807,-0.152628719807,-0.152628719807,-0.152628719807,-0.152628719807,-0.152628719807,-0.152628719807,-0.152628719807,-0.152628719807,-0.152628719807,-0.152628719807,-0.152628719807,-0.152628719807,-0.152628719807,-0.152628719807,-0.152628719807,-0.152628719807,-0.152628719807,-0.152628719807,-0.152628719807,-0.152628719807,-0.152628719807,-0.152628719807,-0.152628719807,-0.152628719807,-0.152628719807,-0.152628719807,-0.152628719807,-0.152628719807,-0.152628719807,-0.152628719807,-0.152628719807,-0.152628719807,-0.152628719807,-0.152628719807,-0.152628719807,-0.152628719807,-0.152628719807,-0.152628719807,-0.152628719807,-0.152628719807,-0.152628719807,-0.152628719807,-0.152628719807,-0.152628719807,-0.152628719807,-0.152628719807,-0.152628719807,-0.152628719807,-0.152628719807,-0.152628719807,-0.152628719807,-0.152628719807,-0.152628719807,-0.152628719807,-0.152628719807,-0.152628719807,-0.152628719807,-0.152628719807,-0.152628719807,-0.152628719807,-0.152628719807,-0.152628719807,-0.152628719807,-0.152628719807,-0.152628719807,-0.152628719807,-0.152628719807,-0.152628719807,-0.152628719807,-0.152628719807,-0.152628719807,-0.152628719807,-0.152628719807,-0.152628719807,-0.152628719807,-0.152628719807,-0.152628719807,-0.152628719807,-0.152628719807,-0.152628719807,-0.152628719807,-0.152628719807,-0.152628719807,-0.152628719807,-0.152628719807,-0.152628719807,-0.152628719807,-0.152628719807,-0.152628719807,-0.152628719807,-0.152628719807,-0.152628719807,-0.152628719807,-0.152628719807,-0.152628719807,-0.152628719807,-0.152628719807,-0.152628719807,-0.152628719807,-0.152628719807,-0.152628719807,-0.152628719807,-0.152628719807,-0.152628719807,-0.152628719807,-0.152628719807,-0.152628719807,-0.152628719807,-0.152628719807,-0.152628719807,-0.152628719807,-0.152628719807,-0.152628719807,-0.152628719807,-0.152628719807,-0.152628719807,-0.152628719807,-0.152628719807,-0.152628719807,-0.152628719807,-0.152628719807,-0.152628719807,-0.152628719807,-0.152628719807,-0.132628723979,-0.132628723979,-0.158066853881,-0.183504983783,-0.212122842669,-0.237560972571,-0.262999087572,-0.291616976261,-0.317055076361,-0.342493206263,-0.367931336164,-0.396549224854,-0.421987354755,-0.447425484657,-0.476043343544,-0.501481533051,-0.526919603348,-0.55235773325,-0.580975651741,-0.606413781643,-0.631851911545,-0.660469770432,-0.685907900333,-0.711346030235,-0.736784160137,-0.765402019024
-0.765402019024,-0.736784160137,-0.711346030235,-0.685907900333,-0.657289981842,-0.631851911545,-0.606413781643,-0.577795863152,-0.55235773325,-0.526919603348,-0.501481533051,-0.472863584757,-0.447425484657,-0.421987354755,-0.393369466066,-0.367931336164,-0.342493206263,-0.313875317574,-0.288437217474,-0.262999087572,-0.234381183982,-0.208943113685,-0.183504983783,-0.154887065291,-0.132628723979,-0.12944893539,-0.149448931217,-0.149448931217,-0.149448931217,-0.149448931217,-0.149448931217,-0.149448931217,-0.149448931217,-0.149448931217,-0.149448931217,-0.149448931217,-0.149448931217,-0.149448931217,-0.149448931217,-0.149448931217,-0.149448931217,-0.149448931217,-0.149448931217,-0.149448931217,-0.149448931217,-0.149448931217,-0.149448931217,-0.149448931217,-0.149448931217,-0.149448931217,-0.149448931217,-0.149448931217,-0.149448931217,-0.149448931217,-0.149448931217,-0.149448931217,-0.149448931217,-0.149448931217,-0.149448931217,-0.149448931217,-0.149448931217,-0.149448931217,-0.149448931217,-0.149448931217,-0.149448931217,-0.149448931217,-0.149448931217,-0.149448931217,-0.149448931217,-0.149448931217,-0.149448931217,-0.149448931217,-0.149448931217,-0.149448931217,-0.149448931217,-0.149448931217,-0.149448931217,-0.149448931217,-0.149448931217,-0.149448931217,-0.149448931217,-0.149448931217,-0.149448931217,-0.149448931217,-0.149448931217,-0.149448931217,-0.149448931217,-0.149448931217,-0.149448931217,-0.149448931217,-0.149448931217,-0.149448931217,-0.149448931217,-0.149448931217,-0.149448931217,-0.149448931217,-0.149448931217,-0.149448931217,-0.149448931217,-0.149448931217,-0.149448931217,-0.149448931217,-0.149448931217,-0.149448931217,-0.149448931217,-0.149448931217,-0.149448931217,-0.149448931217,-0.149448931217,-0.149448931217,-0.149448931217,-0.149448931217,-0.149448931217,-0.149448931217,-0.149448931217,-0.149448931217,-0.149448931217,-0.149448931217,-0.149448931217,-0.149448931217,-0.149448931217,-0.149448931217,-0.149448931217,-0.149448931217,-0.149448931217,-0.149448931217,-0.149448931217,-0.149448931217,-0.149448931217,-0.149448931217,-0.149448931217,-0.149448931217,-0.149448931217,-0.149448931217,-0.149448931217,-0.149448931217,-0.149448931217,-0.149448931217,-0.149448931217,-0.149448931217,-0.149448931217,-0.149448931217,-0.149448931217,-0.149448931217,-0.149448931217,-0.149448931217,-0.149448931217,-0.149448931217,-0.149448931217,-0.149448931217,-0.149448931217,-0.149448931217,-0.149448931217,-0.149448931217,-0.149448931217,-0.149448931217,-0.149448931217,-0.149448931217,-0.149448931217,-0.149448931217,-0.149448931217,-0.149448931217,-0.149448931217,-0.149448931217,-0.149448931217,-0.149448931217,-0.149448931217,-0.149448931217,-0.149448931217,-0.149448931217,-0.149448931217,-0.149448931217,-0.149448931217,-0.149448931217,-0.12944893539,-0.132628723979,-0.154887065291,-0.183504983783,-0.208943113685,-0.234381183982,-0.262999087572,-0.288437217474,-0.313875317574,-0.342493206263,-0.367931336164,-0.393369466066,-0.421987354755,-0.447425484657,-0.472863584757,-0.501481533051,-0.526919603348,-0.55235773325,-0.577795863152,-0.606413781643,-0.631851911545,-0.657289981842,-0.685907900333,-0.711346030235,-0.736784160137,-0.765402019024
-0.765402019024,-0.736784160137,-0.711346030235,-0.685907900333,-0.657289981842,-0.631851911545,-0.606413781643,-0.577795863152,-0.55235773325,-0.526919603348,-0.498301714659,-0.472863584757,-0.447425484657,-0.418807595968,-0.393369466066,-0.367931336164,-0.339313447475,-0.313875317574,-0.288437217474,-0.259819298983,-0.234381183982,-0.208943113685,-0.180325195193,-0.154887065291,-0.12944893539,-0.12944893539,-0.149448931217,-0.149448931217,-0.149448931217,-0.149448931217,-0.149448931217,-0.149448931217,-0.149448931217,-0.149448931217,-0.149448931217,-0.149448931217,-0.149448931217,-0.149448931217,-0.149448931217,-0.149448931217,-0.149448931217,-0.149448931217,-0.149448931217,-0.149448931217,-0.149448931217,-0.149448931217,-0.149448931217,-0.149448931217,-0.149448931217,-0.149448931217,-0.149448931217,-0.149448931217,-0.149448931217,-0.149448931217,-0.149448931217,-0.149448931217,-0.149448931217,-0.149448931217,-0.149448931217,-0.149448931217,-0.149448931217,-0.149448931217,-0.149448931217,-0.149448931217,-0.149448931217,-0.149448931217,-0.149448931217,-0.149448931217,-0.149448931217,-0.149448931217,-0.149448931217,-0.149448931217,-0.149448931217,-0.149448931217,-0.149448931217,-0.149448931217,-0.149448931217,-0.149448931217,-0.149448931217,-0.149448931217,-0.149448931217,-0.149448931217,-0.149448931217,-0.149448931217,-0.149448931217,-0.149448931217,-0.149448931217,-0.149448931217,-0.149448931217,-0.149448931217,-0.149448931217,-0.149448931217,-0.149448931217,-0.149448931217,-0.149448931217,-0.149448931217,-0.149448931217,-0.149448931217,-0.149448931217,-0.149448931217,-0.149448931217,-0.149448931217,-0.149448931217,-0.149448931217,-0.149448931217,-0.149448931217,-0.149448931217,-0.149448931217,-0.149448931217,-0.149448931217,-0.149448931217,-0.149448931217,-0.149448931217,-0.149448931217,-0.149448931217,-0.149448931217,-0.149448931217,-0.149448931217,-0.149448931217,-0.149448931217,-0.149448931217,-0.149448931217,-0.149448931217,-0.149448931217,-0.149448931217,-0.149448931217,-0.149448931217,-0.149448931217,-0.149448931217,-0.149448931217,-0.149448931217,-0.149448931217,-0.149448931217,-0.149448931217,-0.149448931217,-0.149448931217,-0.149448931217,-0.149448931217,-0.149448931217,-0.149448931217,-0.149448931217,-0.149448931217,-0.149448931217,-0.149448931217,-0.149448931217,-0.149448931217,-0.149448931217,-0.149448931217,-0.149448931217,-0.149448931217,-0.149448931217,-0.149448931217,-0.149448931217,-0.149448931217,-0.149448931217,-0.149448931217,-0.149448931217,-0.149448931217,-0.149448931217,-0.149448931217,-0.149448931217,-0.149448931217,-0.149448931217,-0.149448931217,-0.149448931217,-0.149448931217,-0.149448931217,-0.149448931217,-0.149448931217,-0.149448931217,-0.149448931217,-0.149448931217,-0.149448931217,-0.149448931217,-0.12944893539,-0.12944893539,-0.154887065291,-0.180325195193,-0.208943113685,-0.234381183982,-0.259819298983,-0.288437217474,-0.313875317574,-0.339313447475,-0.367931336164,-0.393369466066,-0.418807595968,-0.447425484657,-0.472863584757,-0.498301714659,-0.526919603348,-0.55235773325,-0.577795863152,-0.606413781643,-0.631851911545,-0.657289981842,-0.685907900333,-0.711346030235,-0.736784160137,-0.765402019024
-0.765402019024,-0.736784160137,-0.711346030235,-0.685907900333,-0.657289981842,-0.631851911545,-0.603233993053,-0.577795863152,-0.55235773325,-0.523739874363,-0.498301714659,-0.472863584757,-0.444245696068,-0.418807595968,-0.393369466066,-0.364751547575,-0.339313447475,-0.310695558786,-0.285257428885,-0.259819298983,-0.231201454997,-0.205763325095,-0.180325195193,-0.151707336307,-0.12944893539,-0.126269206405,-0.146269202232,-0.146269202232,-0.146269202232,-0.146269202232,-0.146269202232,-0.146269202232,-0.146269202232,-0.146269202232,-0.146269202232,-0.146269202232,-0.146269202232,-0.146269202232,-0.146269202232,-0.146269202232,-0.146269202232,-0.146269202232,-0.146269202232,-0.146269202232,-0.146269202232,-0.146269202232,-0.146269202232,-0.146269202232,-0.146269202232,-0.146269202232,-0.146269202232,-0.146269202232,-0.146269202232,-0.146269202232,-0.146269202232,-0.146269202232,-0.146269202232,-0.146269202232,-0.146269202232,-0.146269202232,-0.146269202232,-0.146269202232,-0.146269202232,-0.146269202232,-0.146269202232,-0.146269202232,-0.146269202232,-0.146269202232,-0.146269202232,-0.146269202232,-0.146269202232,-0.146269202232,-0.146269202232,-0.146269202232,-0.146269202232,-0.146269202232,-0.146269202232,-0.146269202232,-0.146269202232,-0.146269202232,-0.146269202232,-0.146269202232,-0.146269202232,-0.146269202232,-0.146269202232,-0.146269202232,-0.146269202232,-0.146269202232,-0.146269202232,-0.146269202232,-0.146269202232,-0.146269202232,-0.146269202232,-0.146269202232,-0.146269202232,-0.146269202232,-0.146269202232,-0.146269202232,-0.146269202232,-0.146269202232,-0.146269202232,-0.146269202232,-0.146269202232,-0.146269202232,-0.146269202232,-0.146269202232,-0.146269202232,-0.146269202232,-0.146269202232,-0.146269202232,-0.146269202232,-0.146269202232,-0.146269202232,-0.146269202232,-0.146269202232,-0.146269202232,-0.146269202232,-0.146269202232,-0.146269202232,-0.146269202232,-0.146269202232,-0.146269202232,-0.146269202232,-0.146269202232,-0.146269202232,-0.146269202232,-0.146269202232,-0.146269202232,-0.146269202232,-0.146269202232,-0.146269202232,-0.146269202232,-0.146269202232,-0.146269202232,-0.146269202232,-0.146269202232,-0.146269202232,-0.146269202232,-0.146269202232,-0.146269202232,-0.146269202232,-0.146269202232,-0.146269202232,-0.146269202232,-0.146269202232,-0.146269202232,-0.146269202232,-0.146269202232,-0.146269202232,-0.146269202232,-0.146269202232,-0.146269202232,-0.146269202232,-0.146269202232,-0.146269202232,-0.146269202232,-0.146269202232,-0.146269202232,-0.146269202232,-0.146269202232,-0.146269202232,-0.146269202232,-0.146269202232,-0.146269202232,-0.146269202232,-0.146269202232,-0.146269202232,-0.146269202232,-0.146269202232,-0.146269202232,-0.146269202232,-0.146269202232,-0.146269202232,-0.146269202232,-0.126269206405,-0.12944893539,-0.151707336307,-0.180325195193,-0.205763325095,-0.231201454997,-0.259819298983,-0.285257428885,-0.310695558786,-0.339313447475,-0.364751547575,-0.393369466066,-0.418807595968,-0.444245696068,-0.472863584757,-0.498301714659,-0.523739874363,-0.55235773325,-0.577795863152,-0.603233993053,-0.631851911545,-0.657289981842,-0.685907900333,-0.711346030235,-0.736784160137,-0.765402019024
-0.765402019024,-0.736784160137,-0.711346030235,-0.682728111744,-0.657289981842,-0.631851911545,-0.603233993053,-0.577795863152,-0.549178004265,-0.523739874363,-0.498301714659,-0.46968382597,-0.444245696068,-0.418807595968,-0.390189707279,-0.364751547575,-0.336133658886,-0.310695558786,-0.285257428885,-0.256639569998,-0.231201454997,-0.202583536506,-0.177145406604,-0.151707336307,-0.126269206405,-0.123089417815,-0.143089413643,-0.143089413643,-0.143089413643,-0.143089413643,-0.143089413643,-0.143089413643,-0.143089413643,-0.143089413643,-0.143089413643,-0.143089413643,-0.143089413643,-0.143089413643,-0.143089413643,-0.143089413643,-0.143089413643,-0.143089413643,-0.143089413643,-0.143089413643,-0.143089413643,-0.143089413643,-0.143089413643,-0.143089413643,-0.143089413643,-0.143089413643,-0.143089413643,-0.143089413643,-0.143089413643,-0.143089413643,-0.143089413643,-0.143089413643,-0.143089413643,-0.143089413643,-0.143089413643,-0.143089413643,-0.143089413643,-0.143089413643,-0.143089413643,-0.143089413643,-0.143089413643,-0.143089413643,-0.143089413643,-0.143089413643,-0.143089413643,-0.143089413643,-0.143089413643,-0.143089413643,-0.143089413643,-0.143089413643,-0.143089413643,-0.143089413643,-0.143089413643,-0.143089413643,-0.143089413643,-0.143089413643,-0.143089413643,-0.143089413643,-0.143089413643,-0.143089413643,-0.143089413643,-0.143089413643,-0.143089413643,-0.143089413643,-0.143089413643,-0.143089413643,-0.143089413643,-0.143089413643,-0.143089413643,-0.143089413643,-0.143089413643,-0.143089413643,-0.143089413643,-0.143089413643,-0.143089413643,-0.143089413643,-0.143089413643,-0.143089413643,-0.143089413643,-0.143089413643,-0.143089413643,-0.143089413643,-0.143089413643,-0.143089413643,-0.143089413643,-0.143089413643,-0.143089413643,-0.143089413643,-0.143089413643,-0.143089413643,-0.143089413643,-0.143089413643,-0.143089413643,-0.143089413643,-0.143089413643,-0.143089413643,-0.143089413643,-0.143089413643,-0.143089413643,-0.143089413643,-0.143089413643,-0.143089413643,-0.143089413643,-0.143089413643,-0.143089413643,-0.143089413643,-0.143089413643,-0.143089413643,-0.143089413643,-0.143089413643,-0.143089413643,-0.143089413643,-0.143089413643,-0.143089413643,-0.143089413643,-0.143089413643,-0.143089413643,-0.143089413643,-0.143089413643,-0.143089413643,-0.143089413643,-0.143089413643,-0.143089413643,-0.143089413643,-0.143089413643,-0.143089413643,-0.143089413643,-0.143089413643,-0.143089413643,-0.143089413643,-0.143089413643,-0.143089413643,-0.143089413643,-0.143089413643,-0.143089413643,-0.143089413643,-0.143089413643,-0.143089413643,-0.143089413643,-0.143089413643,-0.143089413643,-0.143089413643,-0.143089413643,-0.143089413643,-0.143089413643,-0.143089413643,-0.143089413643,-0.143089413643,-0.143089413643,-0.143089413643,-0.123089417815,-0.126269206405,-0.151707336307,-0.177145406604,-0.202583536506,-0.231201454997,-0.256639569998,-0.285257428885,-0.310695558786,-0.336133658886,-0.364751547575,-0.390189707279,-0.418807595968,-0.444245696068,-0.46968382597,-0.498301714659,-0.523739874363,-0.549178004265,-0.577795863152,-0.603233993053,-0.631851911545,-0.657289981842,-0.682728111744,-0.711346030235,-0.736784160137,-0.765402019024
-0.765402019024,-0.736784160137,-0.711346030235,-0.682728111744,-0.657289981842,-0.631851911545,-0.603233993053,-0.577795863152,-0.549178004265,-0.523739874363,-0.495121926069,-0.46968382597,-0.444245696068,-0.415627807379,-0.390189707279,-0.361571788788,-0.336133658886,-0.310695558786,-0.282077640295,-0.256639569998,-0.228021666408,-0.202583536506,-0.173965677619,-0.148527547717,-0.123089417815,-0.123089417815,-0.143089413643,-0.143089413643,-0.143089413643,-0.143089413643,-0.143089413643,-0.143089413643,-0.143089413643,-0.143089413643,-0.143089413643,-0.143089413643,-0.143089413643,-0.143089413643,-0.143089413643,-0.143089413643,-0.143089413643,-0.143089413643,-0.143089413643,-0.143089413643,-0.143089413643,-0.143089413643,-0.143089413643,-0.143089413643,-0.143089413643,-0.143089413643,-0.143089413643,-0.143089413643,-0.143089413643,-0.143089413643,-0.143089413643,-0.143089413643,-0.143089413643,-0.143089413643,-0.143089413643,-0.143089413643,-0.143089413643,-0.143089413643,-0.143089413643,-0.143089413643,-0.143089413643,-0.143089413643,-0.143089413643,-0.143089413643,-0.143089413643,-0.143089413643,-0.143089413643,-0.143089413643,-0.143089413643,-0.143089413643,-0.143089413643,-0.143089413643,-0.143089413643,-0.143089413643,-0.143089413643,-0.143089413643,-0.143089413643,-0.143089413643,-0.143089413643,-0.143089413643,-0.143089413643,-0.143089413643,-0.143089413643,-0.143089413643,-0.143089413643,-0.143089413643,-0.143089413643,-0.143089413643,-0.143089413643,-0.143089413643,-0.143089413643,-0.143089413643,-0.143089413643,-0.143089413643,-0.143089413643,-0.143089413643,-0.143089413643,-0.143089413643,-0.143089413643,-0.143089413643,-0.143089413643,-0.143089413643,-0.143089413643,-0.143089413643,-0.143089413643,-0.143089413643,-0.143089413643,-0.143089413643,-0.143089413643,-0.143089413643,-0.143089413643,-0.143089413643,-0.143089413643,-0.143089413643,-0.143089413643,-0.143089413643,-0.143089413643,-0.143089413643,-0.143089413643,-0.143089413643,-0.143089413643,-0.143089413643,-0.143089413643,-0.143089413643,-0.143089413643,-0.143089413643,-0.143089413643,-0.143089413643,-0.143089413643,-0.143089413643,-0.143089413643,-0.143089413643,-0.143089413643,-0.143089413643,-0.143089413643,-0.143089413643,-0.143089413643,-0.143089413643,-0.143089413643,-0.143089413643,-0.143089413643,-0.143089413643,-0.143089413643,-0.143089413643,-0.143089413643,-0.143089413643,-0.143089413643,-0.143089413643,-0.143089413643,-0.143089413643,-0.143089413643,-0.143089413643,-0.143089413643,-0.143089413643,-0.143089413643,-0.143089413643,-0.143089413643,-0.143089413643,-0.143089413643,-0.143089413643,-0.143089413643,-0.143089413643,-0.143089413643,-0.143089413643,-0.143089413643,-0.143089413643,-0.143089413643,-0.143089413643,-0.143089413643,-0.143089413643,-0.123089417815,-0.123089417815,-0.148527547717,-0.173965677619,-0.202583536506,-0.228021666408,-0.256639569998,-0.282077640295,-0.310695558786,-0.336133658886,-0.361571788788,-0.390189707279,-0.415627807379,-0.444245696068,-0.46968382597,-0.495121926069,-0.523739874363,-0.549178004265,-0.577795863152,-0.603233993053,-0.631851911545,-0.657289981842,-0.682728111744,-0.711346030235,-0.736784160137,-0.765402019024
-0.765402019024,-0.736784160137,-0.711346030235,-0.682728111744,-0.657289981842,-0.628672122955,-0.603233993053,-0.574616074562,-0.549178004265,-0.523739874363,-0.495121926069,-0.46968382597,-0.441065937281,-0.415627807379,-0.387009948492,-0.361571788788,-0.336133658886,-0.307515799999,-0.282077640295,-0.253459781408,-0.228021666408,-0.199403807521,-0.173965677619,-0.145347759128,-0.123089417815,-0.11990968883,-0.139909684658,-0.139909684658,-0.139909684658,-0.139909684658,-0.139909684658,-0.139909684658,-0.139909684658,-0.139909684658,-0.139909684658,-0.139909684658,-0.139909684658,-0.139909684658,-0.139909684658,-0.139909684658,-0.139909684658,-0.139909684658,-0.139909684658,-0.139909684658,-0.139909684658,-0.139909684658,-0.139909684658,-0.139909684658,-0.139909684658,-0.139909684658,-0.139909684658,-0.139909684658,-0.139909684658,-0.139909684658,-0.139909684658,-0.139909684658,-0.139909684658,-0.139909684658,-0.139909684658,-0.139909684658,-0.139909684658,-0.139909684658,-0.139909684658,-0.139909684658,-0.139909684658,-0.139909684658,-0.139909684658,-0.139909684658,-0.139909684658,-0.139909684658,-0.139909684658,-0.139909684658,-0.139909684658,-0.139909684658,-0.139909684658,-0.139909684658,-0.139909684658,-0.139909684658,-0.139909684658,-0.139909684658,-0.139909684658,-0.139909684658,-0.139909684658,-0.139909684658,-0.139909684658,-0.139909684658,-0.139909684658,-0.139909684658,-0.139909684658,-0.139909684658,-0.139909684658,-0.139909684658,-0.139909684658,-0.139909684658,-0.139909684658,-0.139909684658,-0.139909684658,-0.139909684658,-0.139909684658,-0.139909684658,-0.139909684658,-0.139909684658,-0.139909684658,-0.139909684658,-0.139909684658,-0.139909684658,-0.139909684658,-0.139909684658,-0.139909684658,-0.139909684658,-0.139909684658,-0.139909684658,-0.139909684658,-0.139909684658,-0.139909684658,-0.139909684658,-0.139909684658,-0.139909684658,-0.139909684658,-0.139909684658,-0.139909684658,-0.139909684658,-0.139909684658,-0.139909684658,-0.139909684658,-0.139909684658,-0.139909684658,-0.139909684658,-0.139909684658,-0.139909684658,-0.139909684658,-0.139909684658,-0.139909684658,-0.139909684658,-0.139909684658,-0.139909684658,-0.139909684658,-0.139909684658,-0.139909684658,-0.139909684658,-0.139909684658,-0.139909684658,-0.139909684658,-0.139909684658,-0.139909684658,-0.139909684658,-0.139909684658,-0.139909684658,-0.139909684658,-0.139909684658,-0.139909684658,-0.139909684658,-0.139909684658,-0.139909684658,-0.139909684658,-0.139909684658,-0.139909684658,-0.139909684658,-0.139909684658,-0.139909684658,-0.139909684658,-0.139909684658,-0.139909684658,-0.139909684658,-0.139909684658,-0.139909684658,-0.139909684658,-0.139909684658,-0.139909684658,-0.139909684658,-0.139909684658,-0.139909684658,-0.139909684658,-0.139909684658,-0.11990968883,-0.123089417815,-0.145347759128,-0.173965677619,-0.199403807521,-0.228021666408,-0.253459781408,-0.282077640295,-0.307515799999,-0.336133658886,-0.361571788788,-0.387009948492,-0.415627807379,-0.441065937281,-0.46968382597,-0.495121926069,-0.523739874363,-0.549178004265,-0.574616074562,-0.603233993053,-0.628672122955,-0.657289981842,-0.682728111744,-0.711346030235,-0.736784160137,-0.765402019024
-0.765402019024,-0.736784160137,-0.711346030235,-0.682728111744,-0.657289981842,-0.628672122955,-0.603233993053,-0.574616074562,-0.549178004265,-0.520560085773,-0.495121926069,-0.466504067183,-0.441065937281,-0.412448048592,-0.387009948492,-0.361571788788,-0.332953900099,-0.307515799999,-0.27889791131,-0.253459781408,-0.224841937423,-0.199403807521,-0.17078588903,-0.145347759128,-0.11990968883,-0.116729900241,-0.136729896069,-0.136729896069,-0.136729896069,-0.136729896069,-0.136729896069,-0.136729896069,-0.136729896069,-0.136729896069,-0.136729896069,-0.136729896069,-0.136729896069,-0.136729896069,-0.136729896069,-0.136729896069,-0.136729896069,-0.136729896069,-0.136729896069,-0.136729896069,-0.136729896069,-0.136729896069,-0.136729896069,-0.136729896069,-0.136729896069,-0.136729896069,-0.136729896069,-0.136729896069,-0.136729896069,-0.136729896069,-0.136729896069,-0.136729896069,-0.136729896069,-0.136729896069,-0.136729896069,-0.136729896069,-0.136729896069,-0.136729896069,-0.136729896069,-0.136729896069,-0.136729896069,-0.136729896069,-0.136729896069,-0.136729896069,-0.136729896069,-0.136729896069,-0.136729896069,-0.136729896069,-0.136729896069,-0.136729896069,-0.136729896069,-0.136729896069,-0.136729896069,-0.136729896069,-0.136729896069,-0.136729896069,-0.136729896069,-0.136729896069,-0.136729896069,-0.136729896069,-0.136729896069,-0.136729896069,-0.136729896069,-0.136729896069,-0.136729896069,-0.136729896069,-0.136729896069,-0.136729896069,-0.136729896069,-0.136729896069,-0.136729896069,-0.136729896069,-0.136729896069,-0.136729896069,-0.136729896069,-0.136729896069,-0.136729896069,-0.136729896069,-0.136729896069,-0.136729896069,-0.136729896069,-0.136729896069,-0.136729896069,-0.136729896069,-0.136729896069,-0.136729896069,-0.136729896069,-0.136729896069,-0.136729896069,-0.136729896069,-0.136729896069,-0.136729896069,-0.136729896069,-0.136729896069,-0.136729896069,-0.136729896069,-0.136729896069,-0.136729896069,-0.136729896069,-0.136729896069,-0.136729896069,-0.136729896069,-0.136729896069,-0.136729896069,-0.136729896069,-0.136729896069,-0.136729896069,-0.136729896069,-0.136729896069,-0.136729896069,-0.136729896069,-0.136729896069,-0.136729896069,-0.136729896069,-0.136729896069,-0.136729896069,-0.136729896069,-0.136729896069,-0.136729896069,-0.136729896069,-0.136729896069,-0.136729896069,-0.136729896069,-0.136729896069,-0.136729896069,-0.136729896069,-0.136729896069,-0.136729896069,-0.136729896069,-0.136729896069,-0.136729896069,-0.136729896069,-0.136729896069,-0.136729896069,-0.136729896069,-0.136729896069,-0.136729896069,-0.136729896069,-0.136729896069,-0.136729896069,-0.136729896069,-0.136729896069,-0.136729896069,-0.136729896069,-0.136729896069,-0.136729896069,-0.136729896069,-0.136729896069,-0.136729896069,-0.136729896069,-0.116729900241,-0.11990968883,-0.145347759128,-0.17078588903,-0.199403807521,-0.224841937423,-0.253459781408,-0.27889791131,-0.307515799999,-0.332953900099,-0.361571788788,-0.387009948492,-0.412448048592,-0.441065937281,-0.466504067183,-0.495121926069,-0.520560085773,-0.549178004265,-0.574616074562,-0.603233993053,-0.628672122955,-0.657289981842,-0.682728111744,-0.711346030235,-0.736784160137,-0.765402019024
-0.765402019024,-0.736784160137,-0.711346030235,-0.682728111744,-0.657289981842,-0.628672122955,-0.603233993053,-0.574616074562,-0.549178004265,-0.520560085773,-0.495121926069,-0.466504067183,-0.441065937281,-0.412448048592,-0.387009948492,-0.358392030001,-0.332953900099,-0.30433601141,-0.27889791131,-0.250279992819,-0.224841937423,-0.196224018931,-0.17078588903,-0.142168030143,-0.116729900241,-0.116729900241,-0.136729896069,-0.136729896069,-0.136729896069,-0.136729896069,-0.136729896069,-0.136729896069,-0.136729896069,-0.136729896069,-0.136729896069,-0.136729896069,-0.136729896069,-0.136729896069,-0.136729896069,-0.136729896069,-0.136729896069,-0.136729896069,-0.136729896069,-0.136729896069,-0.136729896069,-0.136729896069,-0.136729896069,-0.136729896069,-0.136729896069,-0.136729896069,-0.136729896069,-0.136729896069,-0.136729896069,-0.136729896069,-0.136729896069,-0.136729896069,-0.136729896069,-0.136729896069,-0.136729896069,-0.136729896069,-0.136729896069,-0.136729896069,-0.136729896069,-0.136729896069,-0.136729896069,-0.136729896069,-0.136729896069,-0.136729896069,-0.136729896069,-0.136729896069,-0.136729896069,-0.136729896069,-0.136729896069,-0.136729896069,-0.136729896069,-0.136729896069,-0.136729896069,-0.136729896069,-0.136729896069,-0.136729896069,-0.136729896069,-0.136729896069,-0.136729896069,-0.136729896069,-0.136729896069,-0.136729896069,-0.136729896069,-0.136729896069,-0.136729896069,-0.136729896069,-0.136729896069,-0.136729896069,-0.136729896069,-0.136729896069,-0.136729896069,-0.136729896069,-0.136729896069,-0.136729896069,-0.136729896069,-0.136729896069,-0.136729896069,-0.136729896069,-0.136729896069,-0.136729896069,-0.136729896069,-0.136729896069,-0.136729896069,-0.136729896069,-0.136729896069,-0.136729896069,-0.136729896069,-0.136729896069,-0.136729896069,-0.136729896069,-0.136729896069,-0.136729896069,-0.136729896069,-0.136729896069,-0.136729896069,-0.136729896069,-0.136729896069,-0.136729896069,-0.136729896069,-0.136729896069,-0.136729896069,-0.136729896069,-0.136729896069,-0.136729896069,-0.136729896069,-0.136729896069,-0.136729896069,-0.136729896069,-0.136729896069,-0.136729896069,-0.136729896069,-0.136729896069,-0.136729896069,-0.136729896069,-0.136729896069,-0.136729896069,-0.136729896069,-0.136729896069,-0.136729896069,-0.136729896069,-0.136729896069,-0.136729896069,-0.136729896069,-0.136729896069,-0.136729896069,-0.136729896069,-0.136729896069,-0.136729896069,-0.136729896069,-0.136729896069,-0.136729896069,-0.136729896069,-0.136729896069,-0.136729896069,-0.136729896069,-0.136729896069,-0.136729896069,-0.136729896069,-0.136729896069,-0.136729896069,-0.136729896069,-0.136729896069,-0.136729896069,-0.136729896069,-0.136729896069,-0.136729896069,-0.136729896069,-0.136729896069,-0.136729896069,-0.136729896069,-0.116729900241,-0.116729900241,-0.142168030143,-0.17078588903,-0.196224018931,-0.224841937423,-0.250279992819,-0.27889791131,-0.30433601141,-0.332953900099,-0.358392030001,-0.387009948492,-0.412448048592,-0.441065937281,-0.466504067183,-0.495121926069,-0.520560085773,-0.549178004265,-0.574616074562,-0.603233993053,-0.628672122955,-0.657289981842,-0.682728111744,-0.711346030235,-0.736784160137,-0.765402019024
-0.762222290039,-0.736784160137,-0.708166241646,-0.682728111744,-0.654110252857,-0.628672122955,-0.600054264069,-0.574616074562,-0.545998215675,-0.520560085773,-0.491942197084,-0.466504067183,-0.437886178493,-0.412448048592,-0.383830159903,-0.358392030001,-0.329774141312,-0.30433601141,-0.275718122721,-0.250279992819,-0.221662148833,-0.196224018931,-0.167606160045,-0.142168030143,-0.116729900241,-0.113550111651,-0.133550107479,-0.133550107479,-0.133550107479,-0.133550107479,-0.133550107479,-0.133550107479,-0.133550107479,-0.133550107479,-0.133550107479,-0.133550107479,-0.133550107479,-0.133550107479,-0.133550107479,-0.133550107479,-0.133550107479,-0.133550107479,-0.133550107479,-0.133550107479,-0.133550107479,-0.133550107479,-0.133550107479,-0.133550107479,-0.133550107479,-0.133550107479,-0.133550107479,-0.133550107479,-0.133550107479,-0.133550107479,-0.133550107479,-0.133550107479,-0.133550107479,-0.133550107479,-0.133550107479,-0.133550107479,-0.133550107479,-0.133550107479,-0.133550107479,-0.133550107479,-0.133550107479,-0.133550107479,-0.133550107479,-0.133550107479,-0.133550107479,-0.133550107479,-0.133550107479,-0.133550107479,-0.133550107479,-0.133550107479,-0.133550107479,-0.133550107479,-0.133550107479,-0.133550107479,-0.133550107479,-0.133550107479,-0.133550107479,-0.133550107479,-0.133550107479,-0.133550107479,-0.133550107479,-0.133550107479,-0.133550107479,-0.133550107479,-0.133550107479,-0.133550107479,-0.133550107479,-0.133550107479,-0.133550107479,-0.133550107479,-0.133550107479,-0.133550107479,-0.133550107479,-0.133550107479,-0.133550107479,-0.133550107479,-0.133550107479,-0.133550107479,-0.133550107479,-0.133550107479,-0.133550107479,-0.133550107479,-0.133550107479,-0.133550107479,-0.133550107479,-0.133550107479,-0.133550107479,-0.133550107479,-0.133550107479,-0.133550107479,-0.133550107479,-0.133550107479,-0.133550107479,-0.133550107479,-0.133550107479,-0.133550107479,-0.133550107479,-0.133550107479,-0.133550107479,-0.133550107479,-0.133550107479,-0.133550107479,-0.133550107479,-0.133550107479,-0.133550107479,-0.133550107479,-0.133550107479,-0.133550107479,-0.133550107479,-0.133550107479,-0.133550107479,-0.133550107479,-0.133550107479,-0.133550107479,-0.133550107479,-0.133550107479,-0.133550107479,-0.133550107479,-0.133550107479,-0.133550107479,-0.133550107479,-0.133550107479,-0.133550107479,-0.133550107479,-0.133550107479,-0.133550107479,-0.133550107479,-0.133550107479,-0.133550107479,-0.133550107479,-0.133550107479,-0.133550107479,-0.133550107479,-0.133550107479,-0.133550107479,-0.133550107479,-0.133550107479,-0.133550107479,-0.133550107479,-0.133550107479,-0.133550107479,-0.133550107479,-0.133550107479,-0.133550107479,-0.133550107479,-0.133550107479,-0.133550107479,-0.133550107479,-0.133550107479,-0.133550107479,-0.113550111651,-0.116729900241,-0.142168030143,-0.167606160045,-0.196224018931,-0.221662148833,-0.250279992819,-0.275718122721,-0.30433601141,-0.329774141312,-0.358392030001,-0.383830159903,-0.412448048592,-0.437886178493,-0.466504067183,-0.491942197084,-0.520560085773,-0.545998215675,-0.574616074562,-0.600054264069,-0.628672122955,-0.654110252857,-0.682728111744,-0.708166241646,-0.736784160137,-0.762222290039
-0.762222290039,-0.736784160137,-0.708166241646,-0.682728111744,-0.654110252857,-0.628672122955,-0.600054264069,-0.574616074562,-0.545998215675,-0.520560085773,-0.491942197084,-0.463324308395,-0.437886178493,-0.409268289804,-0.383830159903,-0.355212271214,-0.329774141312,-0.301156252623,-0.275718122721,-0.247100278735,-0.221662148833,-0.193044289947,-0.167606160045,-0.138988241553,-0.113550111651,-0.110370382667,-0.130370378494,-0.130370378494,-0.130370378494,-0.130370378494,-0.130370378494,-0.130370378494,-0.130370378494,-0.130370378494,-0.130370378494,-0.130370378494,-0.130370378494,-0.130370378494,-0.130370378494,-0.130370378494,-0.130370378494,-0.130370378494,-0.130370378494,-0.130370378494,-0.130370378494,-0.130370378494,-0.130370378494,-0.130370378494,-0.130370378494,-0.130370378494,-0.130370378494,-0.130370378494,-0.130370378494,-0.130370378494,-0.130370378494,-0.130370378494,-0.130370378494,-0.130370378494,-0.130370378494,-0.130370378494,-0.130370378494,-0.130370378494,-0.130370378494,-0.130370378494,-0.130370378494,-0.130370378494,-0.130370378494,-0.130370378494,-0.130370378494,-0.130370378494,-0.130370378494,-0.130370378494,-0.130370378494,-0.130370378494,-0.130370378494,-0.130370378494,-0.130370378494,-0.130370378494,-0.130370378494,-0.130370378494,-0.130370378494,-0.130370378494,-0.130370378494,-0.130370378494,-0.130370378494,-0.130370378494,-0.130370378494,-0.130370378494,-0.130370378494,-0.130370378494,-0.130370378494,-0.130370378494,-0.130370378494,-0.130370378494,-0.130370378494,-0.130370378494,-0.130370378494,-0.130370378494,-0.130370378494,-0.130370378494,-0.130370378494,-0.130370378494,-0.130370378494,-0.130370378494,-0.130370378494,-0.130370378494,-0.130370378494,-0.130370378494,-0.130370378494,-0.130370378494,-0.130370378494,-0.130370378494,-0.130370378494,-0.130370378494,-0.130370378494,-0.130370378494,-0.130370378494,-0.130370378494,-0.130370378494,-0.130370378494,-0.130370378494,-0.130370378494,-0.130370378494,-0.130370378494,-0.130370378494,-0.130370378494,-0.130370378494,-0.130370378494,-0.130370378494,-0.130370378494,-0.130370378494,-0.130370378494,-0.130370378494,-0.130370378494,-0.130370378494,-0.130370378494,-0.130370378494,-0.130370378494,-0.130370378494,-0.130370378494,-0.130370378494,-0.130370378494,-0.130370378494,-0.130370378494,-0.130370378494,-0.130370378494,-0.130370378494,-0.130370378494,-0.130370378494,-0.130370378494,-0.130370378494,-0.130370378494,-0.130370378494,-0.130370378494,-0.130370378494,-0.130370378494,-0.130370378494,-0.130370378494,-0.130370378494,-0.130370378494,-0.130370378494,-0.130370378494,-0.130370378494,-0.130370378494,-0.130370378494,-0.130370378494,-0.130370378494,-0.130370378494,-0.130370378494,-0.130370378494,-0.130370378494,-0.130370378494,-0.130370378494,-0.130370378494,-0.110370382667,-0.113550111651,-0.138988241553,-0.167606160045,-0.193044289947,-0.221662148833,-0.247100278735,-0.275718122721,-0.301156252623,-0.329774141312,-0.355212271214,-0.383830159903,-0.409268289804,-0.437886178493,-0.463324308395,-0.491942197084,-0.520560085773,-0.545998215675,-0.574616074562,-0.600054264069,-0.628672122955,-0.654110252857,-0.682728111744,-0.708166241646,-0.736784160137,-0.762222290039
-0.762222290039,-0.736784160137,-0.708166241646,-0.682728111744,-0.654110252857,-0.628672122955,-0.600054264069,-0.571436345577,-0.545998215675,-0.517380356789,-0.491942197084,-0.463324308395,-0.437886178493,-0.409268289804,-0.380650371313,-0.355212271214,-0.326594382524,-0.301156252623,-0.272538393736,-0.247100278735,-0.218482360244,-0.193044289947,-0.164426371455,-0.135808512568,-0.110370382667,-0.110370382667,-0.130370378494,-0.130370378494,-0.130370378494,-0.130370378494,-0.130370378494,-0.130370378494,-0.130370378494,-0.130370378494,-0.130370378494,-0.130370378494,-0.130370378494,-0.130370378494,-0.130370378494,-0.130370378494,-0.130370378494,-0.130370378494,-0.130370378494,-0.130370378494,-0.130370378494,-0.130370378494,-0.130370378494,-0.130370378494,-0.130370378494,-0.130370378494,-0.130370378494,-0.130370378494,-0.130370378494,-0.130370378494,-0.130370378494,-0.130370378494,-0.130370378494,-0.130370378494,-0.130370378494,-0.130370378494,-0.130370378494,-0.130370378494,-0.130370378494,-0.130370378494,-0.130370378494,-0.130370378494,-0.130370378494,-0.130370378494,-0.130370378494,-0.130370378494,-0.130370378494,-0.130370378494,-0.130370378494,-0.130370378494,-0.130370378494,-0.130370378494,-0.130370378494,-0.130370378494,-0.130370378494,-0.130370378494,-0.130370378494,-0.130370378494,-0.130370378494,-0.130370378494,-0.130370378494,-0.130370378494,-0.130370378494,-0.130370378494,-0.130370378494,-0.130370378494,-0.130370378494,-0.130370378494,-0.130370378494,-0.130370378494,-0.130370378494,-0.130370378494,-0.130370378494,-0.130370378494,-0.130370378494,-0.130370378494,-0.130370378494,-0.130370378494,-0.130370378494,-0.130370378494,-0.130370378494,-0.130370378494,-0.130370378494,-0.130370378494,-0.130370378494,-0.130370378494,-0.130370378494,-0.130370378494,-0.130370378494,-0.130370378494,-0.130370378494,-0.130370378494,-0.130370378494,-0.130370378494,-0.130370378494,-0.130370378494,-0.130370378494,-0.130370378494,-0.130370378494,-0.130370378494,-0.130370378494,-0.130370378494,-0.130370378494,-0.130370378494,-0.130370378494,-0.130370378494,-0.130370378494,-0.130370378494,-0.130370378494,-0.130370378494,-0.130370378494,-0.130370378494,-0.130370378494,-0.130370378494,-0.130370378494,-0.130370378494,-0.130370378494,-0.130370378494,-0.130370378494,-0.130370378494,-0.130370378494,-0.130370378494,-0.130370378494,-0.130370378494,-0.130370378494,-0.130370378494,-0.130370378494,-0.130370378494,-0.130370378494,-0.130370378494,-0.130370378494,-0.130370378494,-0.130370378494,-0.130370378494,-0.130370378494,-0.130370378494,-0.130370378494,-0.130370378494,-0.130370378494,-0.130370378494,-0.130370378494,-0.130370378494,-0.130370378494,-0.130370378494,-0.130370378494,-0.130370378494,-0.130370378494,-0.130370378494,-0.130370378494,-0.130370378494,-0.110370382667,-0.110370382667,-0.135808512568,-0.164426371455,-0.193044289947,-0.218482360244,-0.247100278735,-0.272538393736,-0.301156252623,-0.326594382524,-0.355212271214,-0.380650371313,-0.409268289804,-0.437886178493,-0.463324308395,-0.491942197084,-0.517380356789,-0.545998215675,-0.571436345577,-0.600054264069,-0.628672122955,-0.654110252857,-0.682728111744,-0.708166241646,-0.736784160137,-0.762222290039
-0.762222290039,-0.736784160137,-0.708166241646,-0.682728111744,-0.654110252857,-0.625492334366,-0.600054264069,-0.571436345577,-0.545998215675,-0.517380356789,-0.488762408495,-0.463324308395,-0.434706419706,-0.409268289804,-0.380650371313,-0.355212271214,-0.326594382524,-0.297976493835,-0.272538393736,-0.243920490146,-0.218482360244,-0.189864501357,-0.161246582866,-0.135808512568,-0.110370382667,-0.107190594077,-0.127190589905,-0.127190589905,-0.127190589905,-0.127190589905,-0.127190589905,-0.127190589905,-0.127190589905,-0.127190589905,-0.127190589905,-0.127190589905,-0.127190589905,-0.127190589905,-0.127190589905,-0.127190589905,-0.127190589905,-0.127190589905,-0.127190589905,-0.127190589905,-0.127190589905,-0.127190589905,-0.127190589905,-0.127190589905,-0.127190589905,-0.127190589905,-0.127190589905,-0.127190589905,-0.127190589905,-0.127190589905,-0.127190589905,-0.127190589905,-0.127190589905,-0.127190589905,-0.127190589905,-0.127190589905,-0.127190589905,-0.127190589905,-0.127190589905,-0.127190589905,-0.127190589905,-0.127190589905,-0.127190589905,-0.127190589905,-0.127190589905,-0.127190589905,-0.127190589905,-0.127190589905,-0.127190589905,-0.127190589905,-0.127190589905,-0.127190589905,-0.127190589905,-0.127190589905,-0.127190589905,-0.127190589905,-0.127190589905,-0.127190589905,-0.127190589905,-0.127190589905,-0.127190589905,-0.127190589905,-0.127190589905,-0.127190589905,-0.127190589905,-0.127190589905,-0.127190589905,-0.127190589905,-0.127190589905,-0.127190589905,-0.127190589905,-0.127190589905,-0.127190589905,-0.127190589905,-0.127190589905,-0.127190589905,-0.127190589905,-0.127190589905,-0.127190589905,-0.127190589905,-0.127190589905,-0.127190589905,-0.127190589905,-0.127190589905,-0.127190589905,-0.127190589905,-0.127190589905,-0.127190589905,-0.127190589905,-0.127190589905,-0.127190589905,-0.127190589905,-0.127190589905,-0.127190589905,-0.127190589905,-0.127190589905,-0.127190589905,-0.127190589905,-0.127190589905,-0.127190589905,-0.127190589905,-0.127190589905,-0.127190589905,-0.127190589905,-0.127190589905,-0.127190589905,-0.127190589905,-0.127190589905,-0.127190589905,-0.127190589905,-0.127190589905,-0.127190589905,-0.127190589905,-0.127190589905,-0.127190589905,-0.127190589905,-0.127190589905,-0.127190589905,-0.127190589905,-0.127190589905,-0.127190589905,-0.127190589905,-0.127190589905,-0.127190589905,-0.127190589905,-0.127190589905,-0.127190589905,-0.127190589905,-0.127190589905,-0.127190589905,-0.127190589905,-0.127190589905,-0.127190589905,-0.127190589905,-0.127190589905,-0.127190589905,-0.127190589905,-0.127190589905,-0.127190589905,-0.127190589905,-0.127190589905,-0.127190589905,-0.127190589905,-0.127190589905,-0.127190589905,-0.127190589905,-0.127190589905,-0.127190589905,-0.127190589905,-0.127190589905,-0.107190594077,-0.110370382667,-0.135808512568,-0.161246582866,-0.189864501357,-0.218482360244,-0.243920490146,-0.272538393736,-0.297976493835,-0.326594382524,-0.355212271214,-0.380650371313,-0.409268289804,-0.434706419706,-0.463324308395,-0.488762408495,-0.517380356789,-0.545998215675,-0.571436345577,-0.600054264069,-0.625492334366,-0.654110252857,-0.682728111744,-0.708166241646,-0.736784160137,-0.762222290039
-0.762222290039,-0.736784160137,-0.708166241646,-0.682728111744,-0.654110252857,-0.625492334366,-0.600054264069,-0.571436345577,-0.542818427086,-0.517380356789,-0.488762408495,-0.463324308395,-0.434706419706,-0.406088531017,-0.380650371313,-0.352032482624,-0.323414623737,-0.297976493835,-0.269358605146,-0.243920490146,-0.215302631259,-0.186684712768,-0.161246582866,-0.132628723979,-0.107190594077,-0.107190594077,-0.127190589905,-0.127190589905,-0.127190589905,-0.127190589905,-0.127190589905,-0.127190589905,-0.127190589905,-0.127190589905,-0.127190589905,-0.127190589905,-0.127190589905,-0.127190589905,-0.127190589905,-0.127190589905,-0.127190589905,-0.127190589905,-0.127190589905,-0.127190589905,-0.127190589905,-0.127190589905,-0.127190589905,-0.127190589905,-0.127190589905,-0.127190589905,-0.127190589905,-0.127190589905,-0.127190589905,-0.127190589905,-0.127190589905,-0.127190589905,-0.127190589905,-0.127190589905,-0.127190589905,-0.127190589905,-0.127190589905,-0.127190589905,-0.127190589905,-0.127190589905,-0.127190589905,-0.127190589905,-0.127190589905,-0.127190589905,-0.127190589905,-0.127190589905,-0.127190589905,-0.127190589905,-0.127190589905,-0.127190589905,-0.127190589905,-0.127190589905,-0.127190589905,-0.127190589905,-0.127190589905,-0.127190589905,-0.127190589905,-0.127190589905,-0.127190589905,-0.127190589905,-0.127190589905,-0.127190589905,-0.127190589905,-0.127190589905,-0.127190589905,-0.127190589905,-0.127190589905,-0.127190589905,-0.127190589905,-0.127190589905,-0.127190589905,-0.127190589905,-0.127190589905,-0.127190589905,-0.127190589905,-0.127190589905,-0.127190589905,-0.127190589905,-0.127190589905,-0.127190589905,-0.127190589905,-0.127190589905,-0.127190589905,-0.127190589905,-0.127190589905,-0.127190589905,-0.127190589905,-0.127190589905,-0.127190589905,-0.127190589905,-0.127190589905,-0.127190589905,-0.127190589905,-0.127190589905,-0.127190589905,-0.127190589905,-0.127190589905,-0.127190589905,-0.127190589905,-0.127190589905,-0.127190589905,-0.127190589905,-0.127190589905,-0.127190589905,-0.127190589905,-0.127190589905,-0.127190589905,-0.127190589905,-0.127190589905,-0.127190589905,-0.127190589905,-0.127190589905,-0.127190589905,-0.127190589905,-0.127190589905,-0.127190589905,-0.127190589905,-0.127190589905,-0.127190589905,-0.127190589905,-0.127190589905,-0.127190589905,-0.127190589905,-0.127190589905,-0.127190589905,-0.127190589905,-0.127190589905,-0.127190589905,-0.127190589905,-0.127190589905,-0.127190589905,-0.127190589905,-0.127190589905,-0.127190589905,-0.127190589905,-0.127190589905,-0.127190589905,-0.127190589905,-0.127190589905,-0.127190589905,-0.127190589905,-0.127190589905,-0.127190589905,-0.127190589905,-0.127190589905,-0.127190589905,-0.127190589905,-0.127190589905,-0.127190589905,-0.127190589905,-0.107190594077,-0.107190594077,-0.132628723979,-0.161246582866,-0.186684712768,-0.215302631259,-0.243920490146,-0.269358605146,-0.297976493835,-0.323414623737,-0.352032482624,-0.380650371313,-0.406088531017,-0.434706419706,-0.463324308395,-0.488762408495,-0.517380356789,-0.542818427086,-0.571436345577,-0.600054264069,-0.625492334366,-0.654110252857,-0.682728111744,-0.708166241646,-0.736784160137,-0.762222290039
-0.762222290039,-0.736784160137,-0.708166241646,-0.679548382759,-0.654110252857,-0.625492334366,-0.596874475479,-0.571436345577,-0.542818427086,-0.517380356789,-0.488762408495,-0.460144519806,-0.434706419706,-0.406088531017,-0.377470612526,-0.352032482624,-0.323414623737,-0.294796735048,-0.269358605146,-0.240740761161,-0.212122842669,-0.186684712768,-0.158066853881,-0.132628723979,-0.107190594077,-0.104010865092,-0.12401086092,-0.12401086092,-0.12401086092,-0.12401086092,-0.12401086092,-0.12401086092,-0.12401086092,-0.12401086092,-0.12401086092,-0.12401086092,-0.12401086092,-0.12401086092,-0.12401086092,-0.12401086092,-0.12401086092,-0.12401086092,-0.12401086092,-0.12401086092,-0.12401086092,-0.12401086092,-0.12401086092,-0.12401086092,-0.12401086092,-0.12401086092,-0.12401086092,-0.12401086092,-0.12401086092,-0.12401086092,-0.12401086092,-0.12401086092,-0.12401086092,-0.12401086092,-0.12401086092,-0.12401086092,-0.12401086092,-0.12401086092,-0.12401086092,-0.12401086092,-0.12401086092,-0.12401086092,-0.12401086092,-0.12401086092,-0.12401086092,-0.12401086092,-0.12401086092,-0.12401086092,-0.12401086092,-0.12401086092,-0.12401086092,-0.12401086092,-0.12401086092,-0.12401086092,-0.12401086092,-0.12401086092,-0.12401086092,-0.12401086092,-0.12401086092,-0.12401086092,-0.12401086092,-0.12401086092,-0.12401086092,-0.12401086092,-0.12401086092,-0.12401086092,-0.12401086092,-0.12401086092,-0.12401086092,-0.12401086092,-0.12401086092,-0.12401086092,-0.12401086092,-0.12401086092,-0.12401086092,-0.12401086092,-0.12401086092,-0.12401086092,-0.12401086092,-0.12401086092,-0.12401086092,-0.12401086092,-0.12401086092,-0.12401086092,-0.12401086092,-0.12401086092,-0.12401086092,-0.12401086092,-0.12401086092,-0.12401086092,-0.12401086092,-0.12401086092,-0.12401086092,-0.12401086092,-0.12401086092,-0.12401086092,-0.12401086092,-0.12401086092,-0.12401086092,-0.12401086092,-0.12401086092,-0.12401086092,-0.12401086092,-0.12401086092,-0.12401086092,-0.12401086092,-0.12401086092,-0.12401086092,-0.12401086092,-0.12401086092,-0.12401086092,-0.12401086092,-0.12401086092,-0.12401086092,-0.12401086092,-0.12401086092,-0.12401086092,-0.12401086092,-0.12401086092,-0.12401086092,-0.12401086092,-0.12401086092,-0.12401086092,-0.12401086092,-0.12401086092,-0.12401086092,-0.12401086092,-0.12401086092,-0.12401086092,-0.12401086092,-0.12401086092,-0.12401086092,-0.12401086092,-0.12401086092,-0.12401086092,-0.12401086092,-0.12401086092,-0.12401086092,-0.12401086092,-0.12401086092,-0.12401086092,-0.12401086092,-0.12401086092,-0.12401086092,-0.12401086092,-0.12401086092,-0.12401086092,-0.12401086092,-0.12401086092,-0.12401086092,-0.104010865092,-0.107190594077,-0.132628723979,-0.158066853881,-0.186684712768,-0.212122842669,-0.240740761161,-0.269358605146,-0.294796735048,-0.323414623737,-0.352032482624,-0.377470612526,-0.406088531017,-0.434706419706,-0.460144519806,-0.488762408495,-0.517380356789,-0.542818427086,-0.571436345577,-0.596874475479,-0.625492334366,-0.654110252857,-0.679548382759,-0.708166241646,-0.736784160137,-0.762222290039
-0.762222290039,-0.736784160137,-0.708166241646,-0.679548382759,-0.654110252857,-0.625492334366,-0.596874475479,-0.571436345577,-0.542818427086,-0.514200568199,-0.488762408495,-0.460144519806,-0.431526660919,-0.406088531017,-0.377470612526,-0.348852723837,-0.323414623737,-0.294796735048,-0.266178816557,-0.240740761161,-0.212122842669,-0.183504983783,-0.158066853881,-0.12944893539,-0.104010865092,-0.100831076503,-0.12083107233,-0.12083107233,-0.12083107233,-0.12083107233,-0.12083107233,-0.12083107233,-0.12083107233,-0.12083107233,-0.12083107233,-0.12083107233,-0.12083107233,-0.12083107233,-0.12083107233,-0.12083107233,-0.12083107233,-0.12083107233,-0.12083107233,-0.12083107233,-0.12083107233,-0.12083107233,-0.12083107233,-0.12083107233,-0.12083107233,-0.12083107233,-0.12083107233,-0.12083107233,-0.12083107233,-0.12083107233,-0.12083107233,-0.12083107233,-0.12083107233,-0.12083107233,-0.12083107233,-0.12083107233,-0.12083107233,-0.12083107233,-0.12083107233,-0.12083107233,-0.12083107233,-0.12083107233,-0.12083107233,-0.12083107233,-0.12083107233,-0.12083107233,-0.12083107233,-0.12083107233,-0.12083107233,-0.12083107233,-0.12083107233,-0.12083107233,-0.12083107233,-0.12083107233,-0.12083107233,-0.12083107233,-0.12083107233,-0.12083107233,-0.12083107233,-0.12083107233,-0.12083107233,-0.12083107233,-0.12083107233,-0.12083107233,-0.12083107233,-0.12083107233,-0.12083107233,-0.12083107233,-0.12083107233,-0.12083107233,-0.12083107233,-0.12083107233,-0.12083107233,-0.12083107233,-0.12083107233,-0.12083107233,-0.12083107233,-0.12083107233,-0.12083107233,-0.12083107233,-0.12083107233,-0.12083107233,-0.12083107233,-0.12083107233,-0.12083107233,-0.12083107233,-0.12083107233,-0.12083107233,-0.12083107233,-0.12083107233,-0.12083107233,-0.12083107233,-0.12083107233,-0.12083107233,-0.12083107233,-0.12083107233,-0.12083107233,-0.12083107233,-0.12083107233,-0.12083107233,-0.12083107233,-0.12083107233,-0.12083107233,-0.12083107233,-0.12083107233,-0.12083107233,-0.12083107233,-0.12083107233,-0.12083107233,-0.12083107233,-0.12083107233,-0.12083107233,-0.12083107233,-0.12083107233,-0.12083107233,-0.12083107233,-0.12083107233,-0.12083107233,-0.12083107233,-0.12083107233,-0.12083107233,-0.12083107233,-0.12083107233,-0.12083107233,-0.12083107233,-0.12083107233,-0.12083107233,-0.12083107233,-0.12083107233,-0.12083107233,-0.12083107233,-0.12083107233,-0.12083107233,-0.12083107233,-0.12083107233,-0.12083107233,-0.12083107233,-0.12083107233,-0.12083107233,-0.12083107233,-0.12083107233,-0.12083107233,-0.12083107233,-0.12083107233,-0.12083107233,-0.12083107233,-0.12083107233,-0.12083107233,-0.12083107233,-0.12083107233,-0.100831076503,-0.104010865092,-0.12944893539,-0.158066853881,-0.183504983783,-0.212122842669,-0.240740761161,-0.266178816557,-0.294796735048,-0.323414623737,-0.348852723837,-0.377470612526,-0.406088531017,-0.431526660919,-0.460144519806,-0.488762408495,-0.514200568199,-0.542818427086,-0.571436345577,-0.596874475479,-0.625492334366,-0.654110252857,-0.679548382759,-0.708166241646,-0.736784160137,-0.762222290039
-0.762222290039,-0.736784160137,-0.708166241646,-0.679548382759,-0.654110252857,-0.625492334366,-0.596874475479,-0.568256556988,-0.542818427086,-0.514200568199,-0.48558267951,-0.460144519806,-0.431526660919,-0.40290877223,-0.377470612526,-0.348852723837,-0.320234835148,-0.291616976261,-0.266178816557,-0.237560972571,-0.208943113685,-0.183504983783,-0.154887065291,-0.126269206405,-0.100831076503,-0.100831076503,-0.12083107233,-0.12083107233,-0.12083107233,-0.12083107233,-0.12083107233,-0.12083107233,-0.12083107233,-0.12083107233,-0.12083107233,-0.12083107233,-0.12083107233,-0.12083107233,-0.12083107233,-0.12083107233,-0.12083107233,-0.12083107233,-0.12083107233,-0.12083107233,-0.12083107233,-0.12083107233,-0.12083107233,-0.12083107233,-0.12083107233,-0.12083107233,-0.12083107233,-0.12083107233,-0.12083107233,-0.12083107233,-0.12083107233,-0.12083107233,-0.12083107233,-0.12083107233,-0.12083107233,-0.12083107233,-0.12083107233,-0.12083107233,-0.12083107233,-0.12083107233,-0.12083107233,-0.12083107233,-0.12083107233,-0.12083107233,-0.12083107233,-0.12083107233,-0.12083107233,-0.12083107233,-0.12083107233,-0.12083107233,-0.12083107233,-0.12083107233,-0.12083107233,-0.12083107233,-0.12083107233,-0.12083107233,-0.12083107233,-0.12083107233,-0.12083107233,-0.12083107233,-0.12083107233,-0.12083107233,-0.12083107233,-0.12083107233,-0.12083107233,-0.12083107233,-0.12083107233,-0.12083107233,-0.12083107233,-0.12083107233,-0.12083107233,-0.12083107233,-0.12083107233,-0.12083107233,-0.12083107233,-0.12083107233,-0.12083107233,-0.12083107233,-0.12083107233,-0.12083107233,-0.12083107233,-0.12083107233,-0.12083107233,-0.12083107233,-0.12083107233,-0.12083107233,-0.12083107233,-0.12083107233,-0.12083107233,-0.12083107233,-0.12083107233,-0.12083107233,-0.12083107233,-0.12083107233,-0.12083107233,-0.12083107233,-0.12083107233,-0.12083107233,-0.12083107233,-0.12083107233,-0.12083107233,-0.12083107233,-0.12083107233,-0.12083107233,-0.12083107233,-0.12083107233,-0.12083107233,-0.12083107233,-0.12083107233,-0.12083107233,-0.12083107233,-0.12083107233,-0.12083107233,-0.12083107233,-0.12083107233,-0.12083107233,-0.12083107233,-0.12083107233,-0.12083107233,-0.12083107233,-0.12083107233,-0.12083107233,-0.12083107233,-0.12083107233,-0.12083107233,-0.12083107233,-0.12083107233,-0.12083107233,-0.12083107233,-0.12083107233,-0.12083107233,-0.12083107233,-0.12083107233,-0.12083107233,-0.12083107233,-0.12083107233,-0.12083107233,-0.12083107233,-0.12083107233,-0.12083107233,-0.12083107233,-0.12083107233,-0.12083107233,-0.12083107233,-0.12083107233,-0.12083107233,-0.12083107233,-0.12083107233,-0.12083107233,-0.12083107233,-0.100831076503,-0.100831076503,-0.126269206405,-0.154887065291,-0.183504983783,-0.208943113685,-0.237560972571,-0.266178816557,-0.291616976261,-0.320234835148,-0.348852723837,-0.377470612526,-0.40290877223,-0.431526660919,-0.460144519806,-0.48558267951,-0.514200568199,-0.542818427086,-0.568256556988,-0.596874475479,-0.625492334366,-0.654110252857,-0.679548382759,-0.708166241646,-0.736784160137,-0.762222290039
-0.762222290039,-0.736784160137,-0.708166241646,-0.679548382759,-0.650930464268,-0.625492334366,-0.596874475479,-0.568256556988,-0.542818427086,-0.514200568199,-0.48558267951,-0.456964761019,-0.431526660919,-0.40290877223,-0.374290853739,-0.34567296505,-0.320234835148,-0.291616976261,-0.262999087572,-0.237560972571,-0.208943113685,-0.180325195193,-0.151707336307,-0.126269206405,-0.100831076503,-0.0976512879133,-0.117651283741,-0.117651283741,-0.117651283741,-0.117651283741,-0.117651283741,-0.117651283741,-0.117651283741,-0.117651283741,-0.117651283741,-0.117651283741,-0.117651283741,-0.117651283741,-0.117651283741,-0.117651283741,-0.117651283741,-0.117651283741,-0.117651283741,-0.117651283741,-0.117651283741,-0.117651283741,-0.117651283741,-0.117651283741,-0.117651283741,-0.117651283741,-0.117651283741,-0.117651283741,-0.117651283741,-0.117651283741,-0.117651283741,-0.117651283741,-0.117651283741,-0.117651283741,-0.117651283741,-0.117651283741,-0.117651283741,-0.117651283741,-0.117651283741,-0.117651283741,-0.117651283741,-0.117651283741,-0.117651283741,-0.117651283741,-0.117651283741,-0.117651283741,-0.117651283741,-0.117651283741,-0.117651283741,-0.117651283741,-0.117651283741,-0.117651283741,-0.117651283741,-0.117651283741,-0.117651283741,-0.117651283741,-0.117651283741,-0.117651283741,-0.117651283741,-0.117651283741,-0.117651283741,-0.117651283741,-0.117651283741,-0.117651283741,-0.117651283741,-0.117651283741,-0.117651283741,-0.117651283741,-0.117651283741,-0.117651283741,-0.117651283741,-0.117651283741,-0.117651283741,-0.117651283741,-0.117651283741,-0.117651283741,-0.117651283741,-0.117651283741,-0.117651283741,-0.117651283741,-0.117651283741,-0.117651283741,-0.117651283741,-0.117651283741,-0.117651283741,-0.117651283741,-0.117651283741,-0.117651283741,-0.117651283741,-0.117651283741,-0.117651283741,-0.117651283741,-0.117651283741,-0.117651283741,-0.117651283741,-0.117651283741,-0.117651283741,-0.117651283741,-0.117651283741,-0.117651283741,-0.117651283741,-0.117651283741,-0.117651283741,-0.117651283741,-0.117651283741,-0.117651283741,-0.117651283741,-0.117651283741,-0.117651283741,-0.117651283741,-0.117651283741,-0.117651283741,-0.117651283741,-0.117651283741,-0.117651283741,-0.117651283741,-0.117651283741,-0.117651283741,-0.117651283741,-0.117651283741,-0.117651283741,-0.117651283741,-0.117651283741,-0.117651283741,-0.117651283741,-0.117651283741,-0.117651283741,-0.117651283741,-0.117651283741,-0.117651283741,-0.117651283741,-0.117651283741,-0.117651283741,-0.117651283741,-0.117651283741,-0.117651283741,-0.117651283741,-0.117651283741,-0.117651283741,-0.117651283741,-0.117651283741,-0.117651283741,-0.117651283741,-0.117651283741,-0.117651283741,-0.117651283741,-0.117651283741,-0.117651283741,-0.117651283741,-0.117651283741,-0.0976512879133,-0.100831076503,-0.126269206405,-0.151707336307,-0.180325195193,-0.208943113685,-0.237560972571,-0.262999087572,-0.291616976261,-0.320234835148,-0.34567296505,-0.374290853739,-0.40290877223,-0.431526660919,-0.456964761019,-0.48558267951,-0.514200568199,-0.542818427086,-0.568256556988,-0.596874475479,-0.625492334366,-0.650930464268,-0.679548382759,-0.708166241646,-0.736784160137,-0.762222290039
-0.762222290039,-0.736784160137,-0.708166241646,-0.679548382759,-0.650930464268,-0.625492334366,-0.596874475479,-0.568256556988,-0.539638698101,-0.514200568199,-0.48558267951,-0.456964761019,-0.42834687233,-0.40290877223,-0.374290853739,-0.34567296505,-0.317055076361,-0.291616976261,-0.262999087572,-0.234381183982,-0.205763325095,-0.180325195193,-0.151707336307,-0.123089417815,-0.0976512879133,-0.0944715589285,-0.114471554756,-0.114471554756,-0.114471554756,-0.114471554756,-0.114471554756,-0.114471554756,-0.114471554756,-0.114471554756,-0.114471554756,-0.114471554756,-0.114471554756,-0.114471554756,-0.114471554756,-0.114471554756,-0.114471554756,-0.114471554756,-0.114471554756,-0.114471554756,-0.114471554756,-0.114471554756,-0.114471554756,-0.114471554756,-0.114471554756,-0.114471554756,-0.114471554756,-0.114471554756,-0.114471554756,-0.114471554756,-0.114471554756,-0.114471554756,-0.114471554756,-0.114471554756,-0.114471554756,-0.114471554756,-0.114471554756,-0.114471554756,-0.114471554756,-0.114471554756,-0.114471554756,-0.114471554756,-0.114471554756,-0.114471554756,-0.114471554756,-0.114471554756,-0.114471554756,-0.114471554756,-0.114471554756,-0.114471554756,-0.114471554756,-0.114471554756,-0.114471554756,-0.114471554756,-0.114471554756,-0.114471554756,-0.114471554756,-0.114471554756,-0.114471554756,-0.114471554756,-0.114471554756,-0.114471554756,-0.114471554756,-0.114471554756,-0.114471554756,-0.114471554756,-0.114471554756,-0.114471554756,-0.114471554756,-0.114471554756,-0.114471554756,-0.114471554756,-0.114471554756,-0.114471554756,-0.114471554756,-0.114471554756,-0.114471554756,-0.114471554756,-0.114471554756,-0.114471554756,-0.114471554756,-0.114471554756,-0.114471554756,-0.114471554756,-0.114471554756,-0.114471554756,-0.114471554756,-0.114471554756,-0.114471554756,-0.114471554756,-0.114471554756,-0.114471554756,-0.114471554756,-0.114471554756,-0.114471554756,-0.114471554756,-0.114471554756,-0.114471554756,-0.114471554756,-0.114471554756,-0.114471554756,-0.114471554756,-0.114471554756,-0.114471554756,-0.114471554756,-0.114471554756,-0.114471554756,-0.114471554756,-0.114471554756,-0.114471554756,-0.114471554756,-0.114471554756,-0.114471554756,-0.114471554756,-0.114471554756,-0.114471554756,-0.114471554756,-0.114471554756,-0.114471554756,-0.114471554756,-0.114471554756,-0.114471554756,-0.114471554756,-0.114471554756,-0.114471554756,-0.114471554756,-0.114471554756,-0.114471554756,-0.114471554756,-0.114471554756,-0.114471554756,-0.114471554756,-0.114471554756,-0.114471554756,-0.114471554756,-0.114471554756,-0.114471554756,-0.114471554756,-0.114471554756,-0.114471554756,-0.114471554756,-0.114471554756,-0.114471554756,-0.114471554756,-0.114471554756,-0.114471554756,-0.114471554756,-0.114471554756,-0.114471554756,-0.114471554756,-0.0944715589285,-0.0976512879133,-0.123089417815,-0.151707336307,-0.180325195193,-0.205763325095,-0.234381183982,-0.262999087572,-0.291616976261,-0.317055076361,-0.34567296505,-0.374290853739,-0.40290877223,-0.42834687233,-0.456964761019,-0.48558267951,-0.514200568199,-0.539638698101,-0.568256556988,-0.596874475479,-0.625492334366,-0.650930464268,-0.679548382759,-0.708166241646,-0.736784160137,-0.762222290039
-0.762222290039,-0.733604371548,-0.708166241646,-0.679548382759,-0.650930464268,-0.622312605381,-0.596874475479,-0.568256556988,-0.539638698101,-0.51102077961,-0.48558267951,-0.456964761019,-0.42834687233,-0.399728983641,-0.371111094952,-0.34567296505,-0.317055076361,-0.288437217474,-0.259819298983,-0.234381183982,-0.205763325095,-0.177145406604,-0.148527547717,-0.11990968883,-0.0944715589285,-0.0944715589285,-0.114471554756,-0.114471554756,-0.114471554756,-0.114471554756,-0.114471554756,-0.114471554756,-0.114471554756,-0.114471554756,-0.114471554756,-0.114471554756,-0.114471554756,-0.114471554756,-0.114471554756,-0.114471554756,-0.114471554756,-0.114471554756,-0.114471554756,-0.114471554756,-0.114471554756,-0.114471554756,-0.114471554756,-0.114471554756,-0.114471554756,-0.114471554756,-0.114471554756,-0.114471554756,-0.114471554756,-0.114471554756,-0.114471554756,-0.114471554756,-0.114471554756,-0.114471554756,-0.114471554756,-0.114471554756,-0.114471554756,-0.114471554756,-0.114471554756,-0.114471554756,-0.114471554756,-0.114471554756,-0.114471554756,-0.114471554756,-0.114471554756,-0.114471554756,-0.114471554756,-0.114471554756,-0.114471554756,-0.114471554756,-0.114471554756,-0.114471554756,-0.114471554756,-0.114471554756,-0.114471554756,-0.114471554756,-0.114471554756,-0.114471554756,-0.114471554756,-0.114471554756,-0.114471554756,-0.114471554756,-0.114471554756,-0.114471554756,-0.114471554756,-0.114471554756,-0.114471554756,-0.114471554756,-0.114471554756,-0.114471554756,-0.114471554756,-0.114471554756,-0.114471554756,-0.114471554756,-0.114471554756,-0.114471554756,-0.114471554756,-0.114471554756,-0.114471554756,-0.114471554756,-0.114471554756,-0.114471554756,-0.114471554756,-0.114471554756,-0.114471554756,-0.114471554756,-0.114471554756,-0.114471554756,-0.114471554756,-0.114471554756,-0.114471554756,-0.114471554756,-0.114471554756,-0.114471554756,-0.114471554756,-0.114471554756,-0.114471554756,-0.114471554756,-0.114471554756,-0.114471554756,-0.114471554756,-0.114471554756,-0.114471554756,-0.114471554756,-0.114471554756,-0.114471554756,-0.114471554756,-0.114471554756,-0.114471554756,-0.114471554756,-0.114471554756,-0.114471554756,-0.114471554756,-0.114471554756,-0.114471554756,-0.114471554756,-0.114471554756,-0.114471554756,-0.114471554756,-0.114471554756,-0.114471554756,-0.114471554756,-0.114471554756,-0.114471554756,-0.114471554756,-0.114471554756,-0.114471554756,-0.114471554756,-0.114471554756,-0.114471554756,-0.114471554756,-0.114471554756,-0.114471554756,-0.114471554756,-0.114471554756,-0.114471554756,-0.114471554756,-0.114471554756,-0.114471554756,-0.114471554756,-0.114471554756,-0.114471554756,-0.114471554756,-0.114471554756,-0.114471554756,-0.114471554756,-0.114471554756,-0.114471554756,-0.114471554756,-0.114471554756,-0.0944715589285,-0.0944715589285,-0.11990968883,-0.148527547717,-0.177145406604,-0.205763325095,-0.234381183982,-0.259819298983,-0.288437217474,-0.317055076361,-0.34567296505,-0.371111094952,-0.399728983641,-0.42834687233,-0.456964761019,-0.48558267951,-0.51102077961,-0.539638698101,-0.568256556988,-0.596874475479,-0.622312605381,-0.650930464268,-0.679548382759,-0.708166241646,-0.733604371548,-0.762222290039
-0.762222290039,-0.733604371548,-0.708166241646,-0.679548382759,-0.650930464268,-0.622312605381,-0.59369468689,-0.568256556988,-0.539638698101,-0.51102077961,-0.482402890921,-0.453785002232,-0.42834687233,-0.399728983641,-0.371111094952,-0.342493206263,-0.313875317574,-0.288437217474,-0.259819298983,-0.231201454997,-0.202583536506,-0.173965677619,-0.148527547717,-0.11990968883,-0.0944715589285,-0.091291770339,-0.111291766167,-0.111291766167,-0.111291766167,-0.111291766167,-0.111291766167,-0.111291766167,-0.111291766167,-0.111291766167,-0.111291766167,-0.111291766167,-0.111291766167,-0.111291766167,-0.111291766167,-0.111291766167,-0.111291766167,-0.111291766167,-0.111291766167,-0.111291766167,-0.111291766167,-0.111291766167,-0.111291766167,-0.111291766167,-0.111291766167,-0.111291766167,-0.111291766167,-0.111291766167,-0.111291766167,-0.111291766167,-0.111291766167,-0.111291766167,-0.111291766167,-0.111291766167,-0.111291766167,-0.111291766167,-0.111291766167,-0.111291766167,-0.111291766167,-0.111291766167,-0.111291766167,-0.111291766167,-0.111291766167,-0.111291766167,-0.111291766167,-0.111291766167,-0.111291766167,-0.111291766167,-0.111291766167,-0.111291766167,-0.111291766167,-0.111291766167,-0.111291766167,-0.111291766167,-0.111291766167,-0.111291766167,-0.111291766167,-0.111291766167,-0.111291766167,-0.111291766167,-0.111291766167,-0.111291766167,-0.111291766167,-0.111291766167,-0.111291766167,-0.111291766167,-0.111291766167,-0.111291766167,-0.111291766167,-0.111291766167,-0.111291766167,-0.111291766167,-0.111291766167,-0.111291766167,-0.111291766167,-0.111291766167,-0.111291766167,-0.111291766167,-0.111291766167,-0.111291766167,-0.111291766167,-0.111291766167,-0.111291766167,-0.111291766167,-0.111291766167,-0.111291766167,-0.111291766167,-0.111291766167,-0.111291766167,-0.111291766167,-0.111291766167,-0.111291766167,-0.111291766167,-0.111291766167,-0.111291766167,-0.111291766167,-0.111291766167,-0.111291766167,-0.111291766167,-0.111291766167,-0.111291766167,-0.111291766167,-0.111291766167,-0.111291766167,-0.111291766167,-0.111291766167,-0.111291766167,-0.111291766167,-0.111291766167,-0.111291766167,-0.111291766167,-0.111291766167,-0.111291766167,-0.111291766167,-0.111291766167,-0.111291766167,-0.111291766167,-0.111291766167,-0.111291766167,-0.111291766167,-0.111291766167,-0.111291766167,-0.111291766167,-0.111291766167,-0.111291766167,-0.111291766167,-0.111291766167,-0.111291766167,-0.111291766167,-0.111291766167,-0.111291766167,-0.111291766167,-0.111291766167,-0.111291766167,-0.111291766167,-0.111291766167,-0.111291766167,-0.111291766167,-0.111291766167,-0.111291766167,-0.111291766167,-0.111291766167,-0.111291766167,-0.111291766167,-0.111291766167,-0.111291766167,-0.111291766167,-0.111291766167,-0.111291766167,-0.111291766167,-0.091291770339,-0.0944715589285,-0.11990968883,-0.148527547717,-0.173965677619,-0.202583536506,-0.231201454997,-0.259819298983,-0.288437217474,-0.313875317574,-0.342493206263,-0.371111094952,-0.399728983641,-0.42834687233,-0.453785002232,-0.482402890921,-0.51102077961,-0.539638698101,-0.568256556988,-0.59369468689,-0.622312605381,-0.650930464268,-0.679548382759,-0.708166241646,-0.733604371548,-0.762222290039
-0.762222290039,-0.733604371548,-0.708166241646,-0.679548382759,-0.650930464268,-0.622312605381,-0.59369468689,-0.565076828003,-0.539638698101,-0.51102077961,-0.482402890921,-0.453785002232,-0.425167113543,-0.396549224854,-0.371111094952,-0.342493206263,-0.313875317574,-0.285257428885,-0.256639569998,-0.231201454997,-0.202583536506,-0.173965677619,-0.145347759128,-0.116729900241,-0.091291770339,-0.0881120413542,-0.108112037182,-0.108112037182,-0.108112037182,-0.108112037182,-0.108112037182,-0.108112037182,-0.108112037182,-0.108112037182,-0.108112037182,-0.108112037182,-0.108112037182,-0.108112037182,-0.108112037182,-0.108112037182,-0.108112037182,-0.108112037182,-0.108112037182,-0.108112037182,-0.108112037182,-0.108112037182,-0.108112037182,-0.108112037182,-0.108112037182,-0.108112037182,-0.108112037182,-0.108112037182,-0.108112037182,-0.108112037182,-0.108112037182,-0.108112037182,-0.108112037182,-0.108112037182,-0.108112037182,-0.108112037182,-0.108112037182,-0.108112037182,-0.108112037182,-0.108112037182,-0.108112037182,-0.108112037182,-0.108112037182,-0.108112037182,-0.108112037182,-0.108112037182,-0.108112037182,-0.108112037182,-0.108112037182,-0.108112037182,-0.108112037182,-0.108112037182,-0.108112037182,-0.108112037182,-0.108112037182,-0.108112037182,-0.108112037182,-0.108112037182,-0.108112037182,-0.108112037182,-0.108112037182,-0.108112037182,-0.108112037182,-0.108112037182,-0.108112037182,-0.108112037182,-0.108112037182,-0.108112037182,-0.108112037182,-0.108112037182,-0.108112037182,-0.108112037182,-0.108112037182,-0.108112037182,-0.108112037182,-0.108112037182,-0.108112037182,-0.108112037182,-0.108112037182,-0.108112037182,-0.108112037182,-0.108112037182,-0.108112037182,-0.108112037182,-0.108112037182,-0.108112037182,-0.108112037182,-0.108112037182,-0.108112037182,-0.108112037182,-0.108112037182,-0.108112037182,-0.108112037182,-0.108112037182,-0.108112037182,-0.108112037182,-0.108112037182,-0.108112037182,-0.108112037182,-0.108112037182,-0.108112037182,-0.108112037182,-0.108112037182,-0.108112037182,-0.108112037182,-0.108112037182,-0.108112037182,-0.108112037182,-0.108112037182,-0.108112037182,-0.108112037182,-0.108112037182,-0.108112037182,-0.108112037182,-0.108112037182,-0.108112037182,-0.108112037182,-0.108112037182,-0.108112037182,-0.108112037182,-0.108112037182,-0.108112037182,-0.108112037182,-0.108112037182,-0.108112037182,-0.108112037182,-0.108112037182,-0.108112037182,-0.108112037182,-0.108112037182,-0.108112037182,-0.108112037182,-0.108112037182,-0.108112037182,-0.108112037182,-0.108112037182,-0.108112037182,-0.108112037182,-0.108112037182,-0.108112037182,-0.108112037182,-0.108112037182,-0.108112037182,-0.108112037182,-0.108112037182,-0.108112037182,-0.108112037182,-0.108112037182,-0.108112037182,-0.108112037182,-0.0881120413542,-0.091291770339,-0.116729900241,-0.145347759128,-0.173965677619,-0.202583536506,-0.231201454997,-0.256639569998,-0.285257428885,-0.313875317574,-0.342493206263,-0.371111094952,-0.396549224854,-0.425167113543,-0.453785002232,-0.482402890921,-0.51102077961,-0.539638698101,-0.565076828003,-0.59369468689,-0.622312605381,-0.650930464268,-0.679548382759,-0.708166241646,-0.733604371548,-0.762222290039
-0.762222290039,-0.733604371548,-0.704986512661,-0.679548382759,-0.650930464268,-0.622312605381,-0.59369468689,-0.565076828003,-0.536458909512,-0.51102077961,-0.482402890921,-0.453785002232,-0.425167113543,-0.396549224854,-0.367931336164,-0.339313447475,-0.313875317574,-0.285257428885,-0.256639569998,-0.228021666408,-0.199403807521,-0.17078588903,-0.142168030143,-0.116729900241,-0.0881120413542,-0.0881120413542,-0.108112037182,-0.108112037182,-0.108112037182,-0.108112037182,-0.108112037182,-0.108112037182,-0.108112037182,-0.108112037182,-0.108112037182,-0.108112037182,-0.108112037182,-0.108112037182,-0.108112037182,-0.108112037182,-0.108112037182,-0.108112037182,-0.108112037182,-0.108112037182,-0.108112037182,-0.108112037182,-0.108112037182,-0.108112037182,-0.108112037182,-0.108112037182,-0.108112037182,-0.108112037182,-0.108112037182,-0.108112037182,-0.108112037182,-0.108112037182,-0.108112037182,-0.108112037182,-0.108112037182,-0.108112037182,-0.108112037182,-0.108112037182,-0.108112037182,-0.108112037182,-0.108112037182,-0.108112037182,-0.108112037182,-0.108112037182,-0.108112037182,-0.108112037182,-0.108112037182,-0.108112037182,-0.108112037182,-0.108112037182,-0.108112037182,-0.108112037182,-0.108112037182,-0.108112037182,-0.108112037182,-0.108112037182,-0.108112037182,-0.108112037182,-0.108112037182,-0.108112037182,-0.108112037182,-0.108112037182,-0.108112037182,-0.108112037182,-0.108112037182,-0.108112037182,-0.108112037182,-0.108112037182,-0.108112037182,-0.108112037182,-0.108112037182,-0.108112037182,-0.108112037182,-0.108112037182,-0.108112037182,-0.108112037182,-0.108112037182,-0.108112037182,-0.108112037182,-0.108112037182,-0.108112037182,-0.108112037182,-0.108112037182,-0.108112037182,-0.108112037182,-0.108112037182,-0.108112037182,-0.108112037182,-0.108112037182,-0.108112037182,-0.108112037182,-0.108112037182,-0.108112037182,-0.108112037182,-0.108112037182,-0.108112037182,-0.108112037182,-0.108112037182,-0.108112037182,-0.108112037182,-0.108112037182,-0.108112037182,-0.108112037182,-0.108112037182,-0.108112037182,-0.108112037182,-0.108112037182,-0.108112037182,-0.108112037182,-0.108112037182,-0.108112037182,-0.108112037182,-0.108112037182,-0.108112037182,-0.108112037182,-0.108112037182,-0.108112037182,-0.108112037182,-0.108112037182,-0.108112037182,-0.108112037182,-0.108112037182,-0.108112037182,-0.108112037182,-0.108112037182,-0.108112037182,-0.108112037182,-0.108112037182,-0.108112037182,-0.108112037182,-0.108112037182,-0.108112037182,-0.108112037182,-0.108112037182,-0.108112037182,-0.108112037182,-0.108112037182,-0.108112037182,-0.108112037182,-0.108112037182,-0.108112037182,-0.108112037182,-0.108112037182,-0.108112037182,-0.108112037182,-0.108112037182,-0.108112037182,-0.108112037182,-0.108112037182,-0.108112037182,-0.0881120413542,-0.0881120413542,-0.116729900241,-0.142168030143,-0.17078588903,-0.199403807521,-0.228021666408,-0.256639569998,-0.285257428885,-0.313875317574,-0.339313447475,-0.367931336164,-0.396549224854,-0.425167113543,-0.453785002232,-0.482402890921,-0.51102077961,-0.536458909512,-0.565076828003,-0.59369468689,-0.622312605381,-0.650930464268,-0.679548382759,-0.704986512661,-0.733604371548,-0.762222290039
-0.762222290039,-0.733604371548,-0.704986512661,-0.679548382759,-0.650930464268,-0.622312605381,-0.59369468689,-0.565076828003,-0.536458909512,-0.507841050625,-0.479223132133,-0.453785002232,-0.425167113543,-0.396549224854,-0.367931336164,-0.339313447475,-0.310695558786,-0.282077640295,-0.253459781408,-0.228021666408,-0.199403807521,-0.17078588903,-0.142168030143,-0.113550111651,-0.0881120413542,-0.0849322527647,-0.104932248592,-0.104932248592,-0.104932248592,-0.104932248592,-0.104932248592,-0.104932248592,-0.104932248592,-0.104932248592,-0.104932248592,-0.104932248592,-0.104932248592,-0.104932248592,-0.104932248592,-0.104932248592,-0.104932248592,-0.104932248592,-0.104932248592,-0.104932248592,-0.104932248592,-0.104932248592,-0.104932248592,-0.104932248592,-0.104932248592,-0.104932248592,-0.104932248592,-0.104932248592,-0.104932248592,-0.104932248592,-0.104932248592,-0.104932248592,-0.104932248592,-0.104932248592,-0.104932248592,-0.104932248592,-0.104932248592,-0.104932248592,-0.104932248592,-0.104932248592,-0.104932248592,-0.104932248592,-0.104932248592,-0.104932248592,-0.104932248592,-0.104932248592,-0.104932248592,-0.104932248592,-0.104932248592,-0.104932248592,-0.104932248592,-0.104932248592,-0.104932248592,-0.104932248592,-0.104932248592,-0.104932248592,-0.104932248592,-0.104932248592,-0.104932248592,-0.104932248592,-0.104932248592,-0.104932248592,-0.104932248592,-0.104932248592,-0.104932248592,-0.104932248592,-0.104932248592,-0.104932248592,-0.104932248592,-0.104932248592,-0.104932248592,-0.104932248592,-0.104932248592,-0.104932248592,-0.104932248592,-0.104932248592,-0.104932248592,-0.104932248592,-0.104932248592,-0.104932248592,-0.104932248592,-0.104932248592,-0.104932248592,-0.104932248592,-0.104932248592,-0.104932248592,-0.104932248592,-0.104932248592,-0.104932248592,-0.104932248592,-0.104932248592,-0.104932248592,-0.104932248592,-0.104932248592,-0.104932248592,-0.104932248592,-0.104932248592,-0.104932248592,-0.104932248592,-0.104932248592,-0.104932248592,-0.104932248592,-0.104932248592,-0.104932248592,-0.104932248592,-0.104932248592,-0.104932248592,-0.104932248592,-0.104932248592,-0.104932248592,-0.104932248592,-0.104932248592,-0.104932248592,-0.104932248592,-0.104932248592,-0.104932248592,-0.104932248592,-0.104932248592,-0.104932248592,-0.104932248592,-0.104932248592,-0.104932248592,-0.104932248592,-0.104932248592,-0.104932248592,-0.104932248592,-0.104932248592,-0.104932248592,-0.104932248592,-0.104932248592,-0.104932248592,-0.104932248592,-0.104932248592,-0.104932248592,-0.104932248592,-0.104932248592,-0.104932248592,-0.104932248592,-0.104932248592,-0.104932248592,-0.104932248592,-0.104932248592,-0.104932248592,-0.104932248592,-0.104932248592,-0.104932248592,-0.104932248592,-0.104932248592,-0.104932248592,-0.104932248592,-0.0849322527647,-0.0881120413542,-0.113550111651,-0.142168030143,-0.17078588903,-0.199403807521,-0.228021666408,-0.253459781408,-0.282077640295,-0.310695558786,-0.339313447475,-0.367931336164,-0.396549224854,-0.425167113543,-0.453785002232,-0.479223132133,-0.507841050625,-0.536458909512,-0.565076828003,-0.59369468689,-0.622312605381,-0.650930464268,-0.679548382759,-0.704986512661,-0.733604371548,-0.762222290039
-0.762222290039,-0.733604371548,-0.704986512661,-0.67636859417,-0.650930464268,-0.622312605381,-0.59369468689,-0.565076828003,-0.536458909512,-0.507841050625,-0.479223132133,-0.450605243444,-0.421987354755,-0.393369466066,-0.367931336164,-0.339313447475,-0.310695558786,-0.282077640295,-0.253459781408,-0.224841937423,-0.196224018931,-0.167606160045,-0.138988241553,-0.110370382667,-0.0849322527647,-0.0849322527647,-0.104932248592,-0.104932248592,-0.104932248592,-0.104932248592,-0.104932248592,-0.104932248592,-0.104932248592,-0.104932248592,-0.104932248592,-0.104932248592,-0.104932248592,-0.104932248592,-0.104932248592,-0.104932248592,-0.104932248592,-0.104932248592,-0.104932248592,-0.104932248592,-0.104932248592,-0.104932248592,-0.104932248592,-0.104932248592,-0.104932248592,-0.104932248592,-0.104932248592,-0.104932248592,-0.104932248592,-0.104932248592,-0.104932248592,-0.104932248592,-0.104932248592,-0.104932248592,-0.104932248592,-0.104932248592,-0.104932248592,-0.104932248592,-0.104932248592,-0.104932248592,-0.104932248592,-0.104932248592,-0.104932248592,-0.104932248592,-0.104932248592,-0.104932248592,-0.104932248592,-0.104932248592,-0.104932248592,-0.104932248592,-0.104932248592,-0.104932248592,-0.104932248592,-0.104932248592,-0.104932248592,-0.104932248592,-0.104932248592,-0.104932248592,-0.104932248592,-0.104932248592,-0.104932248592,-0.104932248592,-0.104932248592,-0.104932248592,-0.104932248592,-0.104932248592,-0.104932248592,-0.104932248592,-0.104932248592,-0.104932248592,-0.104932248592,-0.104932248592,-0.104932248592,-0.104932248592,-0.104932248592,-0.104932248592,-0.104932248592,-0.104932248592,-0.104932248592,-0.104932248592,-0.104932248592,-0.104932248592,-0.104932248592,-0.104932248592,-0.104932248592,-0.104932248592,-0.104932248592,-0.104932248592,-0.104932248592,-0.104932248592,-0.104932248592,-0.104932248592,-0.104932248592,-0.104932248592,-0.104932248592,-0.104932248592,-0.104932248592,-0.104932248592,-0.104932248592,-0.104932248592,-0.104932248592,-0.104932248592,-0.104932248592,-0.104932248592,-0.104932248592,-0.104932248592,-0.104932248592,-0.104932248592,-0.104932248592,-0.104932248592,-0.104932248592,-0.104932248592,-0.104932248592,-0.104932248592,-0.104932248592,-0.104932248592,-0.104932248592,-0.104932248592,-0.104932248592,-0.104932248592,-0.104932248592,-0.104932248592,-0.104932248592,-0.104932248592,-0.104932248592,-0.104932248592,-0.104932248592,-0.104932248592,-0.104932248592,-0.104932248592,-0.104932248592,-0.104932248592,-0.104932248592,-0.104932248592,-0.104932248592,-0.104932248592,-0.104932248592,-0.104932248592,-0.104932248592,-0.104932248592,-0.104932248592,-0.104932248592,-0.104932248592,-0.104932248592,-0.104932248592,-0.104932248592,-0.104932248592,-0.104932248592,-0.104932248592,-0.104932248592,-0.0849322527647,-0.0849322527647,-0.110370382667,-0.138988241553,-0.167606160045,-0.196224018931,-0.224841937423,-0.253459781408,-0.282077640295,-0.310695558786,-0.339313447475,-0.367931336164,-0.393369466066,-0.421987354755,-0.450605243444,-0.479223132133,-0.507841050625,-0.536458909512,-0.565076828003,-0.59369468689,-0.622312605381,-0.650930464268,-0.67636859417,-0.704986512661,-0.733604371548,-0.762222290039
-0.762222290039,-0.733604371548,-0.704986512661,-0.67636859417,-0.647750735283,-0.619132816792,-0.59369468689,-0.565076828003,-0.536458909512,-0.507841050625,-0.479223132133,-0.450605243444,-0.421987354755,-0.393369466066,-0.364751547575,-0.336133658886,-0.307515799999,-0.27889791131,-0.250279992819,-0.224841937423,-0.196224018931,-0.167606160045,-0.138988241553,-0.110370382667,-0.0849322527647,-0.0817524641752,-0.101752460003,-0.101752460003,-0.101752460003,-0.101752460003,-0.101752460003,-0.101752460003,-0.101752460003,-0.101752460003,-0.101752460003,-0.101752460003,-0.101752460003,-0.101752460003,-0.101752460003,-0.101752460003,-0.101752460003,-0.101752460003,-0.101752460003,-0.101752460003,-0.101752460003,-0.101752460003,-0.101752460003,-0.101752460003,-0.101752460003,-0.101752460003,-0.101752460003,-0.101752460003,-0.101752460003,-0.101752460003,-0.101752460003,-0.101752460003,-0.101752460003,-0.101752460003,-0.101752460003,-0.101752460003,-0.101752460003,-0.101752460003,-0.101752460003,-0.101752460003,-0.101752460003,-0.101752460003,-0.101752460003,-0.101752460003,-0.101752460003,-0.101752460003,-0.101752460003,-0.101752460003,-0.101752460003,-0.101752460003,-0.101752460003,-0.101752460003,-0.101752460003,-0.101752460003,-0.101752460003,-0.101752460003,-0.101752460003,-0.101752460003,-0.101752460003,-0.101752460003,-0.101752460003,-0.101752460003,-0.101752460003,-0.101752460003,-0.101752460003,-0.101752460003,-0.101752460003,-0.101752460003,-0.101752460003,-0.101752460003,-0.101752460003,-0.101752460003,-0.101752460003,-0.101752460003,-0.101752460003,-0.101752460003,-0.101752460003,-0.101752460003,-0.101752460003,-0.101752460003,-0.101752460003,-0.101752460003,-0.101752460003,-0.101752460003,-0.101752460003,-0.101752460003,-0.101752460003,-0.101752460003,-0.101752460003,-0.101752460003,-0.101752460003,-0.101752460003,-0.101752460003,-0.101752460003,-0.101752460003,-0.101752460003,-0.101752460003,-0.101752460003,-0.101752460003,-0.101752460003,-0.101752460003,-0.101752460003,-0.101752460003,-0.101752460003,-0.101752460003,-0.101752460003,-0.101752460003,-0.101752460003,-0.101752460003,-0.101752460003,-0.101752460003,-0.101752460003,-0.101752460003,-0.101752460003,-0.101752460003,-0.101752460003,-0.101752460003,-0.101752460003,-0.101752460003,-0.101752460003,-0.101752460003,-0.101752460003,-0.101752460003,-0.101752460003,-0.101752460003,-0.101752460003,-0.101752460003,-0.101752460003,-0.101752460003,-0.101752460003,-0.101752460003,-0.101752460003,-0.101752460003,-0.101752460003,-0.101752460003,-0.101752460003,-0.101752460003,-0.101752460003,-0.101752460003,-0.101752460003,-0.101752460003,-0.101752460003,-0.101752460003,-0.101752460003,-0.101752460003,-0.101752460003,-0.101752460003,-0.101752460003,-0.101752460003,-0.101752460003,-0.0817524641752,-0.0849322527647,-0.110370382667,-0.138988241553,-0.167606160045,-0.196224018931,-0.224841937423,-0.250279992819,-0.27889791131,-0.307515799999,-0.336133658886,-0.364751547575,-0.393369466066,-0.421987354755,-0.450605243444,-0.479223132133,-0.507841050625,-0.536458909512,-0.565076828003,-0.59369468689,-0.619132816792,-0.647750735283,-0.67636859417,-0.704986512661,-0.733604371548,-0.762222290039
