0,0,-0.00999999791384,-0.00999999791384,-0.00999999791384,-0.00999999791384,-0.0199999958277,-0.0199999958277,-0.0199999958277,-0.0199999958277,-0.0299999937415,-0.0299999937415,-0.0299999937415,-0.0299999937415,-0.0399999991059,-0.0399999991059,-0.0399999991059,-0.0399999991059,-0.0499999970198,-0.0499999970198,-0.0499999970198,-0.0499999970198,-0.0499999970198,-0.0599999986589,-0.0599999986589,-0.0599999986589,-0.0599999986589,-0.0599999986589,-0.0599999986589,-0.0599999986589,-0.0599999986589,-0.0599999986589,-0.0599999986589,-0.0599999986589,-0.0599999986589,-0.0599999986589,-0.0599999986589,-0.0599999986589,-0.0599999986589,-0.0599999986589,-0.0599999986589,-0.0499999970198,-0.0499999970198,-0.0499999970198,-0.0499999970198,-0.0499999970198,-0.0499999970198,-0.0499999970198,-0.0499999970198,-0.0499999970198,-0.0499999970198,-0.0499999970198,-0.0499999970198,-0.0499999970198,-0.0499999970198,-0.0499999970198,-0.0499999970198,-0.0499999970198,-0.0499999970198,-0.0499999970198,-0.0499999970198,-0.0399999991059,-0.0399999991059,-0.0299999937415,-0.0299999937415,-0.0199999958277,-0.0199999958277,-0.00999999791384,-0.00999999791384,0,0,0.0100000053644,0.0100000053644,0.0200000107288,0.0200000107288,0.0300000086427,0.0300000086427,0.0400000065565,0.0400000065565,0.0500000081956,0.0500000081956,0.0400000065565,0.0400000065565,0.0300000086427,0.0300000086427,0.0500000081956,0.0100000053644,0.0100000053644,0,0,0.019999999553,-0.0199999958277,-0.0199999958277,-0.0299999937415,-0.0299999937415,-0.00999999418855,-0.0499999970198,-0.0499999970198,-0.0599999986589,-0.0599999986589,-0.070000000298,-0.070000000298,-0.0599999986589,-0.0599999986589,-0.0499999970198,-0.0499999970198,-0.0499999970198,-0.0399999991059,-0.0399999991059,-0.0299999937415,-0.0299999937415,-0.0299999937415,3.72529029846e-09,0.0100000016391,-0.00999999791384,-0.00999999791384,-0.00999999791384,0.019999999553,0.0300000049174,0.0300000049174,0.0300000049174,0.0300000049174,0.0300000049174,0.019999999553,-0.00999999791384,-0.00999999791384,-0.00999999791384,-0.0199999958277,-0.0199999958277,-0.0299999937415,-0.0299999937415,-0.0299999937415,-0.0399999991059,-0.0399999991059,-0.0399999991059,-0.0499999970198,-0.0499999970198,-0.0599999986589,-0.0599999986589,-0.0599999986589,-0.0599999986589,-0.0599999986589,-0.0599999986589,-0.019999999553,-0.0399999991059,-0.0399999991059,3.72529029846e-09,-0.0199999958277,0.0100000016391,-0.00999999791384,-0.00999999791384,0.0300000049174,0.0100000053644,0.0400000102818,0.0400000102818,0.0200000107288,0.0600000061095,0.0400000065565,0.0700000077486,0.0700000077486,0.0500000081956,0.0500000081956,0.0500000081956,0.0500000081956,0.0500000081956,0.0500000081956,0.0500000081956,0.0500000081956,0.0500000081956,0.0500000081956,0.0500000081956,0.0500000081956,0.0500000081956,0.0500000081956,0.0500000081956,0.0400000065565,0.0400000065565,0.0400000065565,0.0400000065565,0.0300000086427,0.0300000086427,0.0300000086427,0.0200000107288,0.0200000107288,0.0200000107288,0.0100000053644,0.0100000053644,0.0100000053644,0.0100000053644,0.0100000053644,0,0,0,0,0,0,0,0,0,0
0,0,-0.00999999791384,-0.00999999791384,-0.00999999791384,-0.00999999791384,-0.0199999958277,-0.0199999958277,-0.0199999958277,-0.0199999958277,-0.0299999937415,-0.0299999937415,-0.0299999937415,-0.0299999937415,-0.0299999937415,-0.0399999991059,-0.0399999991059,-0.0399999991059,-0.0399999991059,-0.0399999991059,-0.0499999970198,-0.0499999970198,-0.0499999970198,-0.0499999970198,-0.0499999970198,-0.0499999970198,-0.0499999970198,-0.0499999970198,-0.0499999970198,-0.0499999970198,-0.0499999970198,-0.0499999970198,-0.0299999974668,-0.019999999553,-0.019999999553,-0.019999999553,-0.019999999553,-0.019999999553,-0.019999999553,-0.019999999553,-0.019999999553,-0.019999999553,-0.0499999970198,-0.0499999970198,-0.0499999970198,-0.0499999970198,-0.0499999970198,-0.0499999970198,-0.0499999970198,-0.0499999970198,-0.0499999970198,-0.0499999970198,-0.0499999970198,-0.0499999970198,-0.0499999970198,-0.0499999970198,-0.0499999970198,-0.0499999970198,-0.0499999970198,-0.0499999970198,-0.0399999991059,-0.0399999991059,-0.0399999991059,-0.0299999937415,-0.0299999937415,-0.0199999958277,-0.0199999958277,-0.00999999791384,-0.00999999791384,0,0,0.0100000053644,0.0100000053644,0.0200000107288,0.0200000107288,0.0300000086427,0.0300000086427,0.0400000065565,0.0400000065565,0.0500000081956,0.0500000081956,0.0400000065565,0.0400000065565,0.0300000086427,0.0300000086427,0.0500000081956,0.0100000053644,0.0100000053644,0,0,0.019999999553,-0.0199999958277,-0.0199999958277,-0.0299999937415,-0.0299999937415,-0.00999999418855,-0.0499999970198,-0.0499999970198,-0.0599999986589,-0.0599999986589,-0.070000000298,-0.070000000298,-0.0599999986589,-0.0599999986589,-0.0599999986589,-0.0499999970198,-0.0499999970198,-0.0399999991059,-0.0399999991059,-0.0399999991059,-0.0299999937415,-0.0299999937415,-0.0299999937415,-0.0199999958277,-0.0199999958277,-0.00999999791384,-0.00999999791384,-0.00999999791384,0.019999999553,0.0300000049174,0,0.0300000049174,0.019999999553,-0.00999999791384,-0.00999999791384,-0.00999999791384,-0.0199999958277,-0.0199999958277,-0.0199999958277,-0.0299999937415,-0.0299999937415,-0.0299999937415,-0.0399999991059,-0.0399999991059,-0.0499999970198,-0.0499999970198,-0.0499999970198,-0.0599999986589,-0.0599999986589,-0.0599999986589,-0.0599999986589,-0.0599999986589,-0.0599999986589,-0.019999999553,-0.0399999991059,-0.0399999991059,-0.00999999418855,-0.0299999937415,0.0100000016391,-0.00999999791384,-0.00999999791384,0.019999999553,0,0.0400000102818,0.0200000107288,0.0200000107288,0.0500000081956,0.0300000086427,0.0700000077486,0.0500000081956,0.0500000081956,0.0500000081956,0.0500000081956,0.0500000081956,0.0500000081956,0.0500000081956,0.0500000081956,0.0500000081956,0.0500000081956,0.0500000081956,0.0500000081956,0.0400000065565,0.0400000065565,0.0400000065565,0.0400000065565,0.0400000065565,0.0400000065565,0.0400000065565,0.0300000086427,0.0300000086427,0.0300000086427,0.0300000086427,0.0200000107288,0.0200000107288,0.0200000107288,0.0100000053644,0.0100000053644,0.0100000053644,0.0100000053644,0.0100000053644,0,0,0,0,0,0,0,0,0,0
0,0,-0.00999999791384,-0.00999999791384,-0.00999999791384,-0.00999999791384,-0.0199999958277,-0.0199999958277,-0.0199999958277,-0.0199999958277,-0.0299999937415,-0.0299999937415,-0.0299999937415,-0.0299999937415,-0.0299999937415,-0.0299999937415,-0.0399999991059,-0.0399999991059,-0.0399999991059,-0.0399999991059,-0.0399999991059,-0.0399999991059,-0.0499999970198,-0.0499999970198,-0.0499999970198,-0.0499999970198,-0.0499999970198,-0.0499999970198,-0.0499999970198,-0.0499999970198,-0.0499999970198,-0.0499999970198,-0.0499999970198,-0.0399999991059,-0.0399999991059,-0.0399999991059,-0.0399999991059,-0.019999999553,-0.00999999418855,-0.00999999418855,-0.00999999418855,-0.00999999418855,-0.00999999418855,-0.00999999418855,-0.00999999418855,-0.019999999553,-0.0399999991059,-0.0399999991059,-0.0399999991059,-0.0399999991059,-0.0399999991059,-0.0399999991059,-0.0399999991059,-0.0399999991059,-0.0399999991059,-0.0399999991059,-0.0399999991059,-0.0399999991059,-0.0399999991059,-0.0399999991059,-0.0399999991059,-0.0399999991059,-0.0299999937415,-0.0299999937415,-0.0299999937415,-0.0199999958277,-0.0199999958277,-0.00999999791384,-0.00999999791384,0,0,0.0100000053644,0.0100000053644,0.0200000107288,0.0200000107288,0.0300000086427,0.0300000086427,0.0400000065565,0.0400000065565,0.0500000081956,0.0500000081956,0.0400000065565,0.0400000065565,0.0300000086427,0.0300000086427,0.0500000081956,0.0100000053644,0.0100000053644,0,0,0.019999999553,-0.0199999958277,-0.0199999958277,-0.0299999937415,-0.0299999937415,-0.00999999418855,-0.0499999970198,-0.0499999970198,-0.0599999986589,-0.0599999986589,-0.070000000298,-0.070000000298,-0.0599999986589,-0.0599999986589,-0.0599999986589,-0.0499999970198,-0.0499999970198,-0.0499999970198,-0.0399999991059,-0.0399999991059,-0.0299999937415,-0.0299999937415,-0.0299999937415,-0.0199999958277,-0.0199999958277,-0.0199999958277,-0.00999999791384,-0.00999999791384,-0.00999999791384,0.019999999553,0.019999999553,0.019999999553,-0.00999999791384,-0.00999999791384,-0.00999999791384,-0.0199999958277,-0.0199999958277,-0.0199999958277,-0.0299999937415,-0.0299999937415,-0.0299999937415,-0.0399999991059,-0.0399999991059,-0.0399999991059,-0.0499999970198,-0.0499999970198,-0.0499999970198,-0.0599999986589,-0.0599999986589,-0.0599999986589,-0.0599999986589,-0.0599999986589,-0.0499999970198,-0.019999999553,-0.0399999991059,-0.0399999991059,-0.0299999937415,-0.0299999937415,0.0100000016391,-0.00999999791384,-0.00999999791384,0,0,0.0400000102818,0.0200000107288,0.0500000081956,0.0300000086427,0.0300000086427,0.0600000061095,0.0400000065565,0.0500000081956,0.0500000081956,0.0500000081956,0.0500000081956,0.0500000081956,0.0500000081956,0.0500000081956,0.0400000065565,0.0400000065565,0.0400000065565,0.0400000065565,0.0400000065565,0.0400000065565,0.0400000065565,0.0400000065565,0.0400000065565,0.0300000086427,0.0300000086427,0.0300000086427,0.0300000086427,0.0300000086427,0.0200000107288,0.0200000107288,0.0200000107288,0.0200000107288,0.0100000053644,0.0100000053644,0.0100000053644,0.0100000053644,0.0100000053644,0,0,0,0,0,0,0,0,0,0
0,0,-0.00999999791384,-0.00999999791384,-0.00999999791384,-0.00999999791384,-0.0199999958277,-0.0199999958277,-0.0199999958277,-0.0199999958277,-0.0199999958277,-0.0299999937415,-0.0299999937415,-0.0299999937415,-0.0299999937415,-0.0299999937415,-0.0299999937415,-0.0399999991059,-0.0399999991059,-0.0399999991059,-0.0399999991059,-0.0399999991059,-0.0399999991059,-0.0399999991059,-0.0399999991059,-0.0399999991059,-0.0399999991059,-0.0399999991059,-0.0399999991059,-0.0399999991059,-0.019999999553,-0.00999999418855,-0.00999999418855,-0.00999999418855,-0.0399999991059,-0.0399999991059,-0.0399999991059,-0.0399999991059,-0.0299999937415,-0.0299999937415,-0.0299999937415,-0.0299999937415,-0.0299999937415,-0.0299999937415,-0.0299999937415,-0.0399999991059,-0.0399999991059,-0.0399999991059,-0.0399999991059,-0.0399999991059,-0.0399999991059,-0.0399999991059,-0.0399999991059,-0.0399999991059,-0.0399999991059,-0.0399999991059,-0.0399999991059,-0.0399999991059,-0.0399999991059,-0.0399999991059,-0.0399999991059,-0.0399999991059,-0.0299999937415,-0.0299999937415,-0.0199999958277,-0.0199999958277,-0.00999999791384,-0.00999999791384,-0.00999999791384,0,0,0.0100000053644,0.0100000053644,0.0200000107288,0.0200000107288,0.0300000086427,0.0300000086427,0.0400000065565,0.0400000065565,0.0500000081956,0.0500000081956,0.0400000065565,0.0400000065565,0.0300000086427,0.0300000086427,0.0500000081956,0.0100000053644,0.0100000053644,0,0,0.019999999553,-0.0199999958277,-0.0199999958277,-0.0299999937415,-0.0299999937415,-0.00999999418855,-0.0499999970198,-0.0499999970198,-0.0599999986589,-0.0599999986589,-0.070000000298,-0.070000000298,-0.0599999986589,-0.0599999986589,-0.0599999986589,-0.0499999970198,-0.0499999970198,-0.0499999970198,-0.0399999991059,-0.0399999991059,-0.0399999991059,-0.0299999937415,-0.0299999937415,-0.0299999937415,-0.0199999958277,-0.0199999958277,-0.0199999958277,-0.00999999791384,-0.00999999791384,-0.00999999791384,-0.00999999791384,0.019999999553,0.0100000016391,0.0100000016391,-0.0199999958277,-0.0199999958277,-0.0199999958277,-0.0299999937415,-0.0299999937415,-0.0299999937415,-0.0399999991059,-0.0399999991059,-0.0399999991059,-0.0399999991059,-0.0499999970198,-0.0499999970198,-0.0499999970198,-0.0599999986589,-0.0599999986589,-0.0599999986589,-0.0599999986589,-0.0599999986589,-0.0499999970198,-0.0499999970198,-0.0399999991059,-0.0399999991059,-0.0299999937415,-0.0299999937415,0.0100000016391,-0.00999999791384,-0.00999999791384,0,0,0.0300000049174,0.0100000053644,0.0500000081956,0.0300000086427,0.0300000086427,0.0400000065565,0.0400000065565,0.0400000065565,0.0500000081956,0.0500000081956,0.0400000065565,0.0400000065565,0.0400000065565,0.0400000065565,0.0400000065565,0.0400000065565,0.0400000065565,0.0400000065565,0.0400000065565,0.0400000065565,0.0400000065565,0.0400000065565,0.0300000086427,0.0300000086427,0.0300000086427,0.0300000086427,0.0200000107288,0.0200000107288,0.0200000107288,0.0200000107288,0.0200000107288,0.0100000053644,0.0100000053644,0.0100000053644,0.0100000053644,0.0100000053644,0.0100000053644,0,0,0,0,0,0,0,0,0,0
0,0,-0.00999999791384,-0.00999999791384,-0.00999999791384,-0.00999999791384,-0.0199999958277,-0.0199999958277,-0.0199999958277,-0.0199999958277,-0.0199999958277,-0.0299999937415,-0.0299999937415,-0.0299999937415,-0.0299999937415,-0.0299999937415,-0.0299999937415,-0.0299999937415,-0.0399999991059,-0.0399999991059,-0.0399999991059,-0.0399999991059,-0.0399999991059,-0.0399999991059,-0.0399999991059,-0.0399999991059,-0.0399999991059,-0.0399999991059,-0.0399999991059,-0.0399999991059,-0.0399999991059,-0.0299999937415,-0.0299999937415,-0.00999999418855,3.72529029846e-09,3.72529029846e-09,3.72529029846e-09,3.72529029846e-09,3.72529029846e-09,-0.0299999937415,-0.0299999937415,-0.0299999937415,-0.0299999937415,-0.0299999937415,3.72529029846e-09,3.72529029846e-09,3.72529029846e-09,-0.00999999418855,-0.0299999937415,-0.0299999937415,-0.0299999937415,-0.0299999937415,-0.0299999937415,-0.0399999991059,-0.0399999991059,-0.0399999991059,-0.0399999991059,-0.0399999991059,-0.0399999991059,-0.0399999991059,-0.0399999991059,-0.0399999991059,-0.0299999937415,-0.0299999937415,-0.0199999958277,-0.0199999958277,-0.00999999791384,-0.00999999791384,0,0,0,0.0100000053644,0.0100000053644,0.0200000107288,0.0200000107288,0.0300000086427,0.0300000086427,0.0400000065565,0.0400000065565,0.0500000081956,0.0500000081956,0.0400000065565,0.0400000065565,0.0300000086427,0.0300000086427,0.0500000081956,0.0100000053644,0.0100000053644,0,0,0.019999999553,-0.0199999958277,-0.0199999958277,-0.0299999937415,-0.0299999937415,-0.00999999418855,-0.0499999970198,-0.0499999970198,-0.0599999986589,-0.0599999986589,-0.070000000298,-0.070000000298,-0.0599999986589,-0.0599999986589,-0.0599999986589,-0.0599999986589,-0.0499999970198,-0.0499999970198,-0.0499999970198,-0.0399999991059,-0.0399999991059,-0.0399999991059,-0.0299999937415,-0.0299999937415,-0.0299999937415,-0.0199999958277,-0.0199999958277,-0.0199999958277,-0.0199999958277,-0.00999999791384,-0.00999999791384,0.0100000016391,0.0100000016391,-0.0199999958277,-0.0199999958277,-0.0199999958277,-0.0299999937415,-0.0299999937415,-0.0299999937415,-0.0299999937415,-0.0399999991059,-0.0399999991059,-0.0399999991059,-0.0499999970198,-0.0499999970198,-0.0499999970198,-0.0499999970198,-0.0599999986589,-0.0599999986589,-0.0599999986589,-0.0599999986589,-0.0599999986589,-0.0499999970198,-0.0499999970198,-0.0399999991059,-0.0399999991059,-0.0299999937415,-0.0299999937415,0.0100000016391,-0.00999999791384,0.019999999553,0,0,0.0100000053644,0.0100000053644,0.0400000102818,0.0200000107288,0.0300000086427,0.0300000086427,0.0400000065565,0.0400000065565,0.0400000065565,0.0400000065565,0.0400000065565,0.0400000065565,0.0400000065565,0.0400000065565,0.0400000065565,0.0400000065565,0.0400000065565,0.0400000065565,0.0300000086427,0.0300000086427,0.0300000086427,0.0300000086427,0.0300000086427,0.0300000086427,0.0300000086427,0.0200000107288,0.0200000107288,0.0200000107288,0.0200000107288,0.0200000107288,0.0100000053644,0.0100000053644,0.0100000053644,0.0100000053644,0.0100000053644,0.0100000053644,0.0100000053644,0,0,0,0,0,0,0,0,0,0
0,0,-0.00999999791384,-0.00999999791384,-0.00999999791384,-0.00999999791384,-0.0199999958277,-0.0199999958277,-0.0199999958277,-0.0199999958277,-0.0199999958277,-0.0199999958277,-0.0299999937415,-0.0299999937415,-0.0299999937415,-0.0299999937415,-0.0299999937415,-0.0299999937415,-0.0299999937415,-0.0299999937415,-0.0299999937415,-0.0299999937415,-0.0299999937415,-0.0399999991059,-0.0399999991059,-0.0399999991059,-0.0299999937415,-0.0299999937415,-0.0299999937415,-0.00999999418855,3.72529029846e-09,3.72529029846e-09,-0.0299999937415,-0.0299999937415,-0.0199999958277,-0.0199999958277,3.72529029846e-09,0.0100000016391,0.0100000016391,0.0100000016391,0.0100000016391,0.0100000016391,0.0100000016391,0.0100000016391,3.72529029846e-09,-0.0199999958277,-0.0199999958277,-0.0299999937415,-0.0299999937415,-0.0299999937415,-0.0299999937415,-0.0299999937415,-0.0299999937415,-0.0299999937415,-0.0299999937415,-0.0299999937415,-0.0399999991059,-0.0399999991059,-0.0399999991059,-0.0399999991059,-0.0399999991059,-0.0399999991059,-0.0299999937415,-0.0299999937415,-0.0199999958277,-0.0199999958277,-0.00999999791384,-0.00999999791384,0,0,0.0100000053644,0.0100000053644,0.0100000053644,0.0200000107288,0.0200000107288,0.0300000086427,0.0300000086427,0.0400000065565,0.0400000065565,0.0500000081956,0.0500000081956,0.0400000065565,0.0400000065565,0.0300000086427,0.0300000086427,0.0500000081956,0.0100000053644,0.0100000053644,0,0,0.019999999553,-0.0199999958277,-0.0199999958277,-0.0299999937415,-0.0299999937415,-0.00999999418855,-0.0499999970198,-0.0499999970198,-0.0599999986589,-0.0599999986589,-0.070000000298,-0.070000000298,-0.0599999986589,-0.0599999986589,-0.0599999986589,-0.0599999986589,-0.0499999970198,-0.0499999970198,-0.0499999970198,-0.0499999970198,-0.0399999991059,-0.0399999991059,-0.0399999991059,-0.0299999937415,-0.0299999937415,-0.0299999937415,-0.0299999937415,-0.0199999958277,-0.0199999958277,-0.0199999958277,-0.0199999958277,-0.0199999958277,-0.0199999958277,-0.0199999958277,3.72529029846e-09,-0.0299999937415,-0.0299999937415,-0.0299999937415,-0.0299999937415,-0.0399999991059,-0.0399999991059,-0.0399999991059,-0.0399999991059,-0.0499999970198,-0.0499999970198,-0.0499999970198,-0.0499999970198,-0.0599999986589,-0.0599999986589,-0.0599999986589,-0.0599999986589,-0.0599999986589,-0.0499999970198,-0.0499999970198,-0.0399999991059,-0.0399999991059,-0.0299999937415,-0.0299999937415,3.72529029846e-09,-0.0199999958277,0.019999999553,0,0,0.0100000053644,0.0100000053644,0.0200000107288,0.0200000107288,0.0300000086427,0.0300000086427,0.0400000065565,0.0400000065565,0.0400000065565,0.0400000065565,0.0400000065565,0.0400000065565,0.0400000065565,0.0400000065565,0.0400000065565,0.0300000086427,0.0300000086427,0.0300000086427,0.0300000086427,0.0300000086427,0.0300000086427,0.0300000086427,0.0300000086427,0.0200000107288,0.0200000107288,0.0200000107288,0.0200000107288,0.0200000107288,0.0200000107288,0.0100000053644,0.0100000053644,0.0100000053644,0.0100000053644,0.0100000053644,0.0100000053644,0.0100000053644,0.0100000053644,0,0,0,0,0,0,0,0,0,0
0,0,-0.00999999791384,-0.00999999791384,-0.00999999791384,-0.00999999791384,-0.0199999958277,-0.0199999958277,-0.0199999958277,-0.0199999958277,-0.0199999958277,-0.0199999958277,-0.0299999937415,-0.0299999937415,-0.0299999937415,-0.0299999937415,-0.0299999937415,-0.0299999937415,-0.0299999937415,-0.0299999937415,-0.0299999937415,-0.0299999937415,-0.0299999937415,-0.0299999937415,-0.0299999937415,-0.0299999937415,-0.0299999937415,-0.0299999937415,-0.0299999937415,-0.0299999937415,-0.0199999958277,-0.0199999958277,3.72529029846e-09,0.0100000016391,0.0100000016391,-0.0199999958277,-0.0199999958277,-0.00999999791384,0.0100000016391,0.019999999553,0.019999999553,0.019999999553,0.0100000016391,-0.00999999791384,-0.0199999958277,-0.0199999958277,0.0100000016391,0.0100000016391,3.72529029846e-09,-0.0199999958277,-0.0199999958277,-0.0299999937415,-0.0299999937415,-0.0299999937415,-0.0299999937415,-0.0299999937415,-0.0299999937415,-0.0299999937415,-0.0399999991059,-0.0399999991059,-0.0399999991059,-0.0299999937415,-0.0299999937415,-0.0199999958277,-0.0199999958277,-0.0199999958277,-0.00999999791384,-0.00999999791384,0,0,0.0100000053644,0.0100000053644,0.0100000053644,0.0200000107288,0.0200000107288,0.0300000086427,0.0300000086427,0.0400000065565,0.0400000065565,0.0500000081956,0.0500000081956,0.0400000065565,0.0400000065565,0.0300000086427,0.0300000086427,0.0500000081956,0.0100000053644,0.0100000053644,0,0,0.019999999553,-0.0199999958277,-0.0199999958277,-0.0299999937415,-0.0299999937415,-0.00999999418855,-0.0499999970198,-0.0499999970198,-0.0599999986589,-0.0599999986589,-0.070000000298,-0.070000000298,-0.0599999986589,-0.0599999986589,-0.0599999986589,-0.0599999986589,-0.0599999986589,-0.0499999970198,-0.0499999970198,-0.0499999970198,-0.0499999970198,-0.0399999991059,-0.0399999991059,-0.0399999991059,-0.0399999991059,-0.0299999937415,-0.0299999937415,-0.0299999937415,-0.0199999958277,-0.0199999958277,-0.0199999958277,-0.0199999958277,3.72529029846e-09,3.72529029846e-09,-0.0299999937415,-0.0299999937415,-0.0299999937415,-0.00999999418855,-0.0399999991059,-0.0399999991059,-0.0399999991059,-0.0399999991059,-0.0499999970198,-0.0499999970198,-0.0499999970198,-0.0499999970198,-0.0499999970198,-0.0599999986589,-0.0599999986589,-0.0599999986589,-0.0599999986589,-0.0599999986589,-0.0499999970198,-0.0499999970198,-0.0399999991059,-0.0399999991059,-0.0299999937415,-0.0299999937415,-0.0199999958277,-0.0199999958277,0.0100000016391,-0.00999999791384,0,0,0.0100000053644,0.0100000053644,0.0200000107288,0.0200000107288,0.0300000086427,0.0300000086427,0.0400000065565,0.0400000065565,0.0400000065565,0.0400000065565,0.0400000065565,0.0300000086427,0.0300000086427,0.0300000086427,0.0300000086427,0.0300000086427,0.0300000086427,0.0300000086427,0.0300000086427,0.0300000086427,0.0200000107288,0.0200000107288,0.0200000107288,0.0200000107288,0.0200000107288,0.0200000107288,0.0100000053644,0.0100000053644,0.0100000053644,0.0100000053644,0.0100000053644,0.0100000053644,0.0100000053644,0.0100000053644,0.0100000053644,0.0100000053644,0.0100000053644,0,0,0,0,0,0,0,0,0
0,0,-0.00999999791384,-0.00999999791384,-0.00999999791384,-0.00999999791384,-0.00999999791384,-0.0199999958277,-0.0199999958277,-0.0199999958277,-0.0199999958277,-0.0199999958277,-0.0199999958277,-0.0299999937415,-0.0299999937415,-0.0299999937415,-0.0299999937415,-0.0299999937415,-0.0299999937415,-0.0299999937415,-0.0299999937415,-0.0299999937415,-0.0299999937415,-0.0299999937415,-0.0299999937415,-0.0299999937415,-0.0199999958277,-0.0199999958277,3.72529029846e-09,0.0100000016391,0.0100000016391,-0.0199999958277,-0.0199999958277,-0.00999999791384,0.0100000016391,0.019999999553,0.019999999553,0.019999999553,0.019999999553,0.019999999553,0.019999999553,0.019999999553,0.019999999553,0.019999999553,0.019999999553,0.019999999553,0.0100000016391,-0.00999999791384,-0.0199999958277,-0.0199999958277,-0.0199999958277,-0.0199999958277,-0.0199999958277,-0.0199999958277,-0.0299999937415,-0.0299999937415,-0.0299999937415,-0.0299999937415,-0.0299999937415,-0.0399999991059,-0.0299999937415,-0.0299999937415,-0.0299999937415,-0.0199999958277,-0.0199999958277,-0.00999999791384,-0.00999999791384,-0.00999999791384,0,0,0.0100000053644,0.0100000053644,0.0200000107288,0.0200000107288,0.0200000107288,0.0300000086427,0.0300000086427,0.0400000065565,0.0400000065565,0.0500000081956,0.0500000081956,0.0400000065565,0.0400000065565,0.0300000086427,0.0300000086427,0.0500000081956,0.0100000053644,0.0100000053644,0,0,0.019999999553,-0.0199999958277,-0.0199999958277,-0.0299999937415,-0.0299999937415,-0.00999999418855,-0.0499999970198,-0.0499999970198,-0.0599999986589,-0.0599999986589,-0.070000000298,-0.070000000298,-0.070000000298,-0.0599999986589,-0.0599999986589,-0.0599999986589,-0.0599999986589,-0.0499999970198,-0.0499999970198,-0.0499999970198,-0.0499999970198,-0.0499999970198,-0.0399999991059,-0.0399999991059,-0.0399999991059,-0.0399999991059,-0.0299999937415,-0.0299999937415,-0.0299999937415,-0.0299999937415,-0.0299999937415,-0.0299999937415,-0.0299999937415,-0.0299999937415,-0.0299999937415,-0.00999999418855,-0.00999999418855,-0.0399999991059,-0.0399999991059,-0.0399999991059,-0.0399999991059,-0.0399999991059,-0.0499999970198,-0.0499999970198,-0.0499999970198,-0.0499999970198,-0.0499999970198,-0.0599999986589,-0.0599999986589,-0.0599999986589,-0.0599999986589,-0.0599999986589,-0.0499999970198,-0.0499999970198,-0.0399999991059,-0.0399999991059,-0.0299999937415,-0.0299999937415,-0.0199999958277,-0.0199999958277,-0.00999999791384,-0.00999999791384,0,0,0.0100000053644,0.0100000053644,0.0200000107288,0.0200000107288,0.0300000086427,0.0300000086427,0.0400000065565,0.0400000065565,0.0400000065565,0.0300000086427,0.0300000086427,0.0300000086427,0.0300000086427,0.0300000086427,0.0300000086427,0.0300000086427,0.0300000086427,0.0200000107288,0.0200000107288,0.0200000107288,0.0200000107288,0.0200000107288,0.0200000107288,0.0200000107288,0.0100000053644,0.0100000053644,0.0100000053644,0.0100000053644,0.0100000053644,0.0100000053644,0.0100000053644,0.0100000053644,0.0100000053644,0.0100000053644,0.0100000053644,0.0100000053644,0.0100000053644,0,0,0,0,0,0,0,0,0
0,0,-0.00999999791384,-0.00999999791384,-0.00999999791384,-0.00999999791384,-0.00999999791384,-0.0199999958277,-0.0199999958277,-0.0199999958277,-0.0199999958277,-0.0199999958277,-0.0199999958277,-0.0199999958277,-0.0199999958277,-0.0199999958277,-0.0199999958277,-0.0199999958277,-0.0199999958277,-0.0199999958277,-0.0199999958277,-0.0199999958277,-0.0199999958277,-0.0199999958277,-0.0199999958277,-0.0199999958277,-0.0199999958277,-0.0199999958277,-0.0199999958277,-0.00999999791384,0.0100000016391,0.019999999553,0.019999999553,0.019999999553,-0.00999999791384,0,0.019999999553,0.0300000049174,0.0300000049174,0.0300000049174,0.0300000049174,0.0300000049174,0.0300000049174,0.0300000049174,0.019999999553,0,-0.00999999791384,-0.00999999791384,-0.00999999791384,-0.00999999791384,-0.0199999958277,-0.0199999958277,-0.0199999958277,-0.0199999958277,-0.0199999958277,-0.0199999958277,-0.0299999937415,-0.0299999937415,-0.0299999937415,-0.0299999937415,-0.0299999937415,-0.0299999937415,-0.0299999937415,-0.0199999958277,-0.0199999958277,-0.00999999791384,-0.00999999791384,-0.00999999791384,0,0,0.0100000053644,0.0100000053644,0.0200000107288,0.0200000107288,0.0200000107288,0.0300000086427,0.0300000086427,0.0400000065565,0.0400000065565,0.0500000081956,0.0500000081956,0.0400000065565,0.0400000065565,0.0300000086427,0.0300000086427,0.0500000081956,0.0100000053644,0.0100000053644,0,0,0.019999999553,-0.0199999958277,-0.0199999958277,-0.0299999937415,-0.0299999937415,-0.00999999418855,-0.0499999970198,-0.0499999970198,-0.0599999986589,-0.0599999986589,-0.070000000298,-0.070000000298,-0.070000000298,-0.0599999986589,-0.0599999986589,-0.0599999986589,-0.0599999986589,-0.0599999986589,-0.0499999970198,-0.0499999970198,-0.0499999970198,-0.0499999970198,-0.0499999970198,-0.0399999991059,-0.0399999991059,-0.0399999991059,-0.0399999991059,-0.0399999991059,-0.0299999937415,-0.0299999937415,-0.0299999937415,-0.0299999937415,-0.0299999937415,-0.00999999418855,-0.00999999418855,-0.0399999991059,-0.0399999991059,-0.0399999991059,-0.0399999991059,-0.0399999991059,-0.019999999553,-0.0499999970198,-0.0499999970198,-0.0499999970198,-0.0499999970198,-0.0499999970198,-0.0499999970198,-0.0599999986589,-0.0599999986589,-0.0599999986589,-0.0599999986589,-0.0599999986589,-0.0499999970198,-0.0499999970198,-0.0399999991059,-0.0399999991059,-0.0299999937415,-0.0299999937415,-0.0199999958277,-0.0199999958277,-0.00999999791384,-0.00999999791384,0,0,0.0100000053644,0.0100000053644,0.0200000107288,0.0200000107288,0.0300000086427,0.0300000086427,0.0300000086427,0.0300000086427,0.0300000086427,0.0300000086427,0.0300000086427,0.0300000086427,0.0300000086427,0.0300000086427,0.0200000107288,0.0200000107288,0.0200000107288,0.0200000107288,0.0200000107288,0.0200000107288,0.0200000107288,0.0200000107288,0.0100000053644,0.0100000053644,0.0100000053644,0.0100000053644,0.0100000053644,0.0100000053644,0.0100000053644,0.0100000053644,0.0100000053644,0.0100000053644,0.0100000053644,0.0100000053644,0.0100000053644,0.0100000053644,0.0100000053644,0,0,0,0,0,0,0,0,0
0,0,-0.00999999791384,-0.00999999791384,-0.00999999791384,-0.00999999791384,-0.00999999791384,-0.0199999958277,-0.0199999958277,-0.0199999958277,-0.0199999958277,-0.0199999958277,-0.0199999958277,-0.0199999958277,-0.0199999958277,-0.0199999958277,-0.0199999958277,-0.0199999958277,-0.0199999958277,-0.0199999958277,-0.0199999958277,-0.0199999958277,-0.0199999958277,-0.0199999958277,-0.0199999958277,-0.0199999958277,-0.00999999791384,-0.00999999791384,-0.00999999791384,-0.00999999791384,-0.00999999791384,0,0.019999999553,0.0300000049174,0.0300000049174,0.0300000049174,0,0.0300000049174,0.0400000102818,0.0400000102818,0.0400000102818,0.0400000102818,0.0300000049174,0.0100000053644,0,0,0,0,-0.00999999791384,-0.00999999791384,-0.00999999791384,-0.00999999791384,-0.0199999958277,-0.0199999958277,-0.0199999958277,-0.0199999958277,-0.0199999958277,-0.0299999937415,-0.0299999937415,-0.0299999937415,-0.0299999937415,-0.0299999937415,-0.0299999937415,-0.0199999958277,-0.0199999958277,-0.00999999791384,-0.00999999791384,0,0,0,0.0100000053644,0.0100000053644,0.0200000107288,0.0200000107288,0.0200000107288,0.0300000086427,0.0300000086427,0.0400000065565,0.0400000065565,0.0500000081956,0.0500000081956,0.0400000065565,0.0400000065565,0.0300000086427,0.0300000086427,0.0500000081956,0.0100000053644,0.0100000053644,0,0,0.019999999553,-0.0199999958277,-0.0199999958277,-0.0299999937415,-0.0299999937415,-0.00999999418855,-0.0499999970198,-0.0499999970198,-0.0599999986589,-0.0599999986589,-0.070000000298,-0.070000000298,-0.070000000298,-0.0599999986589,-0.0599999986589,-0.0599999986589,-0.0599999986589,-0.0599999986589,-0.0599999986589,-0.0499999970198,-0.0499999970198,-0.0499999970198,-0.0499999970198,-0.0499999970198,-0.0499999970198,-0.0399999991059,-0.0399999991059,-0.0399999991059,-0.0399999991059,-0.0399999991059,-0.0399999991059,-0.0399999991059,-0.0399999991059,-0.0399999991059,-0.0399999991059,-0.0399999991059,-0.0399999991059,-0.0399999991059,-0.019999999553,-0.019999999553,-0.0499999970198,-0.0499999970198,-0.0499999970198,-0.0499999970198,-0.0499999970198,-0.0499999970198,-0.0499999970198,-0.0599999986589,-0.0599999986589,-0.0599999986589,-0.0599999986589,-0.0499999970198,-0.0499999970198,-0.0499999970198,-0.0399999991059,-0.0399999991059,-0.0299999937415,-0.0299999937415,-0.0199999958277,-0.0199999958277,-0.00999999791384,-0.00999999791384,0,0,0.0100000053644,0.0100000053644,0.0100000053644,0.0200000107288,0.0200000107288,0.0300000086427,0.0300000086427,0.0300000086427,0.0300000086427,0.0300000086427,0.0300000086427,0.0300000086427,0.0200000107288,0.0200000107288,0.0200000107288,0.0200000107288,0.0200000107288,0.0200000107288,0.0200000107288,0.0200000107288,0.0100000053644,0.0100000053644,0.0100000053644,0.0100000053644,0.0100000053644,0.0100000053644,0.0100000053644,0.0100000053644,0.0100000053644,0.0100000053644,0.0100000053644,0.0100000053644,0.0100000053644,0.0100000053644,0.0100000053644,0.0100000053644,0.0100000053644,0.0100000053644,0,0,0,0,0,0,0,0
0,0,-0.00999999791384,-0.00999999791384,-0.00999999791384,-0.00999999791384,-0.00999999791384,-0.0199999958277,-0.0199999958277,-0.0199999958277,-0.0199999958277,-0.0199999958277,-0.0199999958277,-0.0199999958277,-0.0199999958277,-0.0199999958277,-0.0199999958277,-0.0199999958277,-0.0199999958277,-0.0199999958277,-0.0199999958277,-0.0199999958277,-0.0199999958277,-0.00999999791384,-0.00999999791384,-0.00999999791384,-0.00999999791384,-0.00999999791384,-0.00999999791384,0,0,0,0,0.0100000053644,0.0300000049174,0.0400000102818,0.0400000102818,0.0400000102818,0.0400000102818,0.0500000081956,0.0500000081956,0.0400000102818,0.0100000053644,0.0400000102818,0.0400000102818,0.0300000049174,0,0,0,0,-0.00999999791384,-0.00999999791384,-0.00999999791384,-0.00999999791384,-0.0199999958277,-0.0199999958277,-0.0199999958277,-0.0199999958277,-0.0299999937415,-0.0299999937415,-0.0299999937415,-0.0299999937415,-0.0199999958277,-0.0199999958277,-0.0199999958277,-0.00999999791384,-0.00999999791384,0,0,0,0.0100000053644,0.0100000053644,0.0200000107288,0.0200000107288,0.0300000086427,0.0300000086427,0.0300000086427,0.0400000065565,0.0400000065565,0.0500000081956,0.0500000081956,0.0400000065565,0.0400000065565,0.0300000086427,0.0300000086427,0.0500000081956,0.0100000053644,0.0100000053644,0,0,0.019999999553,-0.0199999958277,-0.0199999958277,-0.0299999937415,-0.0299999937415,-0.00999999418855,-0.0499999970198,-0.0499999970198,-0.0599999986589,-0.0599999986589,-0.070000000298,-0.070000000298,-0.070000000298,-0.070000000298,-0.0599999986589,-0.0599999986589,-0.0599999986589,-0.0599999986589,-0.0599999986589,-0.0599999986589,-0.0599999986589,-0.0499999970198,-0.0499999970198,-0.0499999970198,-0.0499999970198,-0.0499999970198,-0.0499999970198,-0.0399999991059,-0.0399999991059,-0.0399999991059,-0.0399999991059,-0.0399999991059,-0.0399999991059,-0.0399999991059,-0.0399999991059,-0.019999999553,-0.019999999553,-0.019999999553,-0.0499999970198,-0.0499999970198,-0.0499999970198,-0.0499999970198,-0.0499999970198,-0.0499999970198,-0.0499999970198,-0.0499999970198,-0.0499999970198,-0.0599999986589,-0.0599999986589,-0.0599999986589,-0.0599999986589,-0.0499999970198,-0.0499999970198,-0.0399999991059,-0.0399999991059,-0.0399999991059,-0.0299999937415,-0.0299999937415,-0.0199999958277,-0.0199999958277,-0.00999999791384,-0.00999999791384,-0.00999999791384,0,0,0.0100000053644,0.0100000053644,0.0200000107288,0.0200000107288,0.0300000086427,0.0300000086427,0.0300000086427,0.0300000086427,0.0300000086427,0.0200000107288,0.0200000107288,0.0200000107288,0.0200000107288,0.0200000107288,0.0200000107288,0.0200000107288,0.0100000053644,0.0100000053644,0.0100000053644,0.0100000053644,0.0100000053644,0.0100000053644,0.0100000053644,0,0,0,0,0,0,0,0.0100000053644,0.0100000053644,0.0100000053644,0.0100000053644,0.0100000053644,0.0100000053644,0.0100000053644,0.0100000053644,0,0,0,0,0,0,0
0,0,-0.00999999791384,-0.00999999791384,-0.00999999791384,-0.00999999791384,-0.00999999791384,-0.0199999958277,-0.0199999958277,-0.0199999958277,-0.0199999958277,-0.0199999958277,-0.0199999958277,-0.0199999958277,-0.0199999958277,-0.0199999958277,-0.0199999958277,-0.0199999958277,-0.0199999958277,-0.0199999958277,-0.00999999791384,-0.00999999791384,-0.00999999791384,-0.00999999791384,-0.00999999791384,-0.00999999791384,0,0.019999999553,0.0300000049174,0.0300000049174,0,0.0300000049174,0.0400000102818,0.0400000102818,0.0100000053644,0.0400000102818,0.0500000081956,0.0500000081956,0.0500000081956,0.0300000086427,0.0300000086427,0.0500000081956,0.0500000081956,0.0500000081956,0.0400000102818,0.0400000102818,0.0400000102818,0.0300000049174,0,0,0,0,-0.00999999791384,-0.00999999791384,-0.00999999791384,-0.0199999958277,-0.0199999958277,-0.0199999958277,-0.0199999958277,-0.0299999937415,-0.0299999937415,-0.0299999937415,-0.0199999958277,-0.0199999958277,-0.00999999791384,-0.00999999791384,-0.00999999791384,0,0,0.0100000053644,0.0100000053644,0.0100000053644,0.0200000107288,0.0200000107288,0.0300000086427,0.0300000086427,0.0300000086427,0.0400000065565,0.0400000065565,0.0500000081956,0.0500000081956,0.0400000065565,0.0400000065565,0.0300000086427,0.0300000086427,0.0500000081956,0.0100000053644,0.0100000053644,0,0,0.019999999553,-0.0199999958277,-0.0199999958277,-0.0299999937415,-0.0299999937415,-0.00999999418855,-0.0499999970198,-0.0499999970198,-0.0599999986589,-0.0599999986589,-0.070000000298,-0.070000000298,-0.070000000298,-0.070000000298,-0.0599999986589,-0.0599999986589,-0.0599999986589,-0.0599999986589,-0.0599999986589,-0.0599999986589,-0.0599999986589,-0.0599999986589,-0.0599999986589,-0.0499999970198,-0.0499999970198,-0.0499999970198,-0.0499999970198,-0.0499999970198,-0.0499999970198,-0.0499999970198,-0.0499999970198,-0.0499999970198,-0.0499999970198,-0.0499999970198,-0.0499999970198,-0.0499999970198,-0.0499999970198,-0.0499999970198,-0.0499999970198,-0.0499999970198,-0.0499999970198,-0.0499999970198,-0.0499999970198,-0.0499999970198,-0.0499999970198,-0.0499999970198,-0.0499999970198,-0.0599999986589,-0.0599999986589,-0.0599999986589,-0.0599999986589,-0.0499999970198,-0.0499999970198,-0.0399999991059,-0.0399999991059,-0.0399999991059,-0.0299999937415,-0.0299999937415,-0.0199999958277,-0.0199999958277,-0.00999999791384,-0.00999999791384,-0.00999999791384,0,0,0.0100000053644,0.0100000053644,0.0100000053644,0.0200000107288,0.0200000107288,0.0300000086427,0.0300000086427,0.0200000107288,0.0200000107288,0.0200000107288,0.0200000107288,0.0200000107288,0.0200000107288,0.0200000107288,0.0100000053644,0.0100000053644,0.0100000053644,0.0100000053644,0.0100000053644,0.0100000053644,0.0100000053644,0,0,0,0,0,0,0,0,0,0,0,0.0100000053644,0.0100000053644,0.0100000053644,0.0100000053644,0.0100000053644,0.0100000053644,0.0100000053644,0,0,0,0,0,0
0,0,-0.00999999791384,-0.00999999791384,-0.00999999791384,-0.00999999791384,-0.00999999791384,-0.0199999958277,-0.0199999958277,-0.0199999958277,-0.0199999958277,-0.0199999958277,-0.0199999958277,-0.0199999958277,-0.0199999958277,-0.0199999958277,-0.0199999958277,-0.0199999958277,-0.00999999791384,-0.00999999791384,-0.00999999791384,-0.00999999791384,-0.00999999791384,-0.00999999791384,0,0,0,0,0.0100000053644,0.0300000049174,0.0400000102818,0.0400000102818,0.0200000107288,0.0400000102818,0.0500000081956,0.0500000081956,0.0300000086427,0.0500000081956,0.0600000061095,0.0600000061095,0.0600000061095,0.0600000061095,0.0600000061095,0.0500000081956,0.0500000081956,0.0400000102818,0.0400000102818,0.0400000102818,0.0100000053644,0.0100000053644,0,0,0,-0.00999999791384,-0.00999999791384,-0.00999999791384,-0.0199999958277,-0.0199999958277,-0.0199999958277,-0.0299999937415,-0.0299999937415,-0.0299999937415,-0.0199999958277,-0.0199999958277,-0.00999999791384,-0.00999999791384,-0.00999999791384,0,0,0.0100000053644,0.0100000053644,0.0100000053644,0.0200000107288,0.0200000107288,0.0300000086427,0.0300000086427,0.0300000086427,0.0400000065565,0.0400000065565,0.0500000081956,0.0500000081956,0.0400000065565,0.0400000065565,0.0300000086427,0.0300000086427,0.0500000081956,0.0100000053644,0.0100000053644,0,0,0.019999999553,-0.0199999958277,-0.0199999958277,-0.0299999937415,-0.0299999937415,-0.00999999418855,-0.0499999970198,-0.0499999970198,-0.0599999986589,-0.0599999986589,-0.070000000298,-0.070000000298,-0.070000000298,-0.070000000298,-0.070000000298,-0.0599999986589,-0.0599999986589,-0.0599999986589,-0.0599999986589,-0.0599999986589,-0.0599999986589,-0.0599999986589,-0.0599999986589,-0.0599999986589,-0.0599999986589,-0.0599999986589,-0.0499999970198,-0.0499999970198,-0.0499999970198,-0.0499999970198,-0.0499999970198,-0.0499999970198,-0.0499999970198,-0.0499999970198,-0.0499999970198,-0.0499999970198,-0.0299999974668,-0.0299999974668,-0.0299999974668,-0.0299999974668,-0.0299999974668,-0.0299999974668,-0.0299999974668,-0.0299999974668,-0.0299999974668,-0.0299999974668,-0.0599999986589,-0.0599999986589,-0.0599999986589,-0.0599999986589,-0.0599999986589,-0.0499999970198,-0.0499999970198,-0.0399999991059,-0.0399999991059,-0.0399999991059,-0.0299999937415,-0.0299999937415,-0.0199999958277,-0.0199999958277,-0.0199999958277,-0.00999999791384,-0.00999999791384,0,0,0,0.0100000053644,0.0100000053644,0.0200000107288,0.0200000107288,0.0200000107288,0.0200000107288,0.0200000107288,0.0200000107288,0.0200000107288,0.0200000107288,0.0200000107288,0.0100000053644,0.0100000053644,0.0100000053644,0.0100000053644,0.0100000053644,0.0100000053644,0,0,0,0,0,0,0,0,0,0,0,0,0,0,0,0.0100000053644,0.0100000053644,0.0100000053644,0.0100000053644,0.0100000053644,0.0100000053644,0.0100000053644,0,0,0,0,0
0,0,-0.00999999791384,-0.00999999791384,-0.00999999791384,-0.00999999791384,-0.00999999791384,-0.0199999958277,-0.0199999958277,-0.0199999958277,-0.0199999958277,-0.0199999958277,-0.0199999958277,-0.0199999958277,-0.0199999958277,-0.0199999958277,-0.0199999958277,-0.00999999791384,-0.00999999791384,-0.00999999791384,-0.00999999791384,-0.00999999791384,0,0,0,0,0.0100000053644,0.0100000053644,0.0100000053644,0.0100000053644,0.0200000107288,0.0200000107288,0.0200000107288,0.0200000107288,0.0500000081956,0.0600000061095,0.0600000061095,0.0300000086427,0.0600000061095,0.0700000077486,0.0700000077486,0.0700000077486,0.0600000061095,0.0600000061095,0.0500000081956,0.0500000081956,0.0500000081956,0.0400000102818,0.0100000053644,0.0100000053644,0.0300000049174,0,0,0,-0.00999999791384,-0.00999999791384,-0.00999999791384,-0.0199999958277,-0.0199999958277,-0.0199999958277,-0.0299999937415,-0.0199999958277,-0.0199999958277,-0.0199999958277,-0.00999999791384,-0.00999999791384,0,0,0,0.0100000053644,0.0100000053644,0.0200000107288,0.0200000107288,0.0200000107288,0.0300000086427,0.0300000086427,0.0300000086427,0.0400000065565,0.0400000065565,0.0500000081956,0.0500000081956,0.0400000065565,0.0400000065565,0.0300000086427,0.0300000086427,0.0500000081956,0.0100000053644,0.0100000053644,0,0,0.019999999553,-0.0199999958277,-0.0199999958277,-0.0299999937415,-0.0299999937415,-0.00999999418855,-0.0499999970198,-0.0499999970198,-0.0599999986589,-0.0599999986589,-0.070000000298,-0.070000000298,-0.070000000298,-0.070000000298,-0.070000000298,-0.070000000298,-0.070000000298,-0.0599999986589,-0.0599999986589,-0.0599999986589,-0.0599999986589,-0.0599999986589,-0.0599999986589,-0.0599999986589,-0.0599999986589,-0.0599999986589,-0.0599999986589,-0.0599999986589,-0.0599999986589,-0.0599999986589,-0.0599999986589,-0.0599999986589,-0.0299999974668,-0.0299999974668,-0.0299999974668,-0.0299999974668,-0.0299999974668,-0.0299999974668,-0.0299999974668,-0.0299999974668,-0.0299999974668,-0.0299999974668,-0.0299999974668,-0.0299999974668,-0.0299999974668,-0.0599999986589,-0.0599999986589,-0.0599999986589,-0.0599999986589,-0.0299999974668,-0.0499999970198,-0.0499999970198,-0.0499999970198,-0.0399999991059,-0.0399999991059,-0.0399999991059,-0.0299999937415,-0.0299999937415,-0.0199999958277,-0.0199999958277,-0.0199999958277,-0.00999999791384,-0.00999999791384,0,0,0,0.0100000053644,0.0100000053644,0.0100000053644,0.0200000107288,0.0200000107288,0.0200000107288,0.0200000107288,0.0200000107288,0.0200000107288,0.0100000053644,0.0100000053644,0.0100000053644,0.0100000053644,0.0100000053644,0.0100000053644,0,0,0,0,0,0,0,-0.00999999791384,-0.00999999791384,-0.00999999791384,-0.00999999791384,0,0,0,0,0,0,0.0100000053644,0.0100000053644,0.0100000053644,0.0100000053644,0.0100000053644,0.0100000053644,0.0100000053644,0,0,0,0,0
0,0,-0.00999999791384,-0.00999999791384,-0.00999999791384,-0.00999999791384,-0.00999999791384,-0.00999999791384,-0.0199999958277,-0.0199999958277,-0.0199999958277,-0.0199999958277,-0.0199999958277,-0.0199999958277,-0.0199999958277,-0.00999999791384,-0.00999999791384,-0.00999999791384,-0.00999999791384,-0.00999999791384,0,0,0,0,0,0.0300000049174,0.0100000053644,0.0100000053644,0.0200000107288,0.0200000107288,0.0200000107288,0.0200000107288,0.0500000081956,0.0600000061095,0.0600000061095,0.0600000061095,0.0700000077486,0.0700000077486,0.0700000077486,0.0700000077486,0.0700000077486,0.0700000077486,0.0700000077486,0.0700000077486,0.0600000061095,0.0600000061095,0.0500000081956,0.0500000081956,0.0200000107288,0.0200000107288,0.0400000102818,0.0300000049174,0,0,0,-0.00999999791384,-0.00999999791384,-0.00999999791384,-0.0199999958277,-0.0199999958277,-0.0199999958277,-0.0199999958277,-0.0199999958277,-0.00999999791384,-0.00999999791384,-0.00999999791384,0,0,0,0.0100000053644,0.0100000053644,0.0200000107288,0.0200000107288,0.0200000107288,0.0300000086427,0.0300000086427,0.0300000086427,0.0400000065565,0.0400000065565,0.0500000081956,0.0500000081956,0.0400000065565,0.0400000065565,0.0300000086427,0.0300000086427,0.0500000081956,0.0100000053644,0.0100000053644,0,0,0.019999999553,-0.0199999958277,-0.0199999958277,-0.0299999937415,-0.0299999937415,-0.00999999418855,-0.0499999970198,-0.0499999970198,-0.0599999986589,-0.0599999986589,-0.070000000298,-0.070000000298,-0.070000000298,-0.070000000298,-0.070000000298,-0.070000000298,-0.070000000298,-0.070000000298,-0.070000000298,-0.070000000298,-0.0599999986589,-0.0599999986589,-0.0599999986589,-0.0599999986589,-0.0599999986589,-0.0599999986589,-0.0599999986589,-0.0599999986589,-0.0599999986589,-0.0599999986589,-0.0599999986589,-0.0599999986589,-0.0599999986589,-0.0599999986589,-0.0599999986589,-0.0599999986589,-0.0599999986589,-0.0599999986589,-0.0599999986589,-0.0599999986589,-0.0599999986589,-0.0599999986589,-0.0599999986589,-0.0599999986589,-0.0599999986589,-0.0599999986589,-0.0599999986589,-0.0599999986589,-0.0299999974668,-0.0499999970198,-0.0499999970198,-0.0499999970198,-0.0499999970198,-0.0399999991059,-0.0399999991059,-0.0399999991059,-0.0299999937415,-0.0299999937415,-0.0199999958277,-0.0199999958277,-0.0199999958277,-0.00999999791384,-0.00999999791384,-0.00999999791384,0,0,0.0100000053644,0.0100000053644,0.0100000053644,0.0200000107288,0.0200000107288,0.0200000107288,0.0200000107288,0.0100000053644,0.0100000053644,0.0100000053644,0.0100000053644,0.0100000053644,0.0100000053644,0,0,0,0,0,0,-0.00999999791384,-0.00999999791384,-0.00999999791384,-0.00999999791384,-0.00999999791384,-0.00999999791384,-0.00999999791384,-0.00999999791384,0,0,0,0,0,0.0100000053644,0.0100000053644,0.0100000053644,0.0100000053644,0.0100000053644,0.0100000053644,0.0100000053644,0.0100000053644,0,0,0,0
0,0,-0.00999999791384,-0.00999999791384,-0.00999999791384,-0.00999999791384,-0.00999999791384,-0.00999999791384,-0.0199999958277,-0.0199999958277,-0.0199999958277,-0.0199999958277,-0.0199999958277,-0.00999999791384,-0.00999999791384,-0.00999999791384,-0.00999999791384,-0.00999999791384,-0.00999999791384,0,0,0,0,0.0100000053644,0.0100000053644,0.0400000102818,0.0200000107288,0.0200000107288,0.0200000107288,0.0200000107288,0.0500000081956,0.0600000061095,0.0600000061095,0.0600000061095,0.0700000077486,0.0700000077486,0.0700000077486,0.0799999982119,0.0799999982119,0.0799999982119,0.0799999982119,0.0799999982119,0.0799999982119,0.0700000077486,0.0700000077486,0.0600000061095,0.0600000061095,0.0500000081956,0.0200000107288,0.0500000081956,0.0400000102818,0.0400000102818,0.0300000049174,0,0,0,-0.00999999791384,-0.00999999791384,-0.0199999958277,-0.0199999958277,-0.0199999958277,-0.0199999958277,-0.0199999958277,-0.00999999791384,-0.00999999791384,-0.00999999791384,0,0,0.0100000053644,0.0100000053644,0.0100000053644,0.0200000107288,0.0200000107288,0.0200000107288,0.0300000086427,0.0300000086427,0.0400000065565,0.0400000065565,0.0400000065565,0.0500000081956,0.0500000081956,0.0400000065565,0.0400000065565,0.0300000086427,0.0300000086427,0.0500000081956,0.0100000053644,0.0100000053644,0,0,0.019999999553,-0.0199999958277,-0.0199999958277,-0.0299999937415,-0.0299999937415,-0.00999999418855,-0.0499999970198,-0.0499999970198,-0.0599999986589,-0.0599999986589,-0.070000000298,-0.070000000298,-0.070000000298,-0.070000000298,-0.070000000298,-0.070000000298,-0.070000000298,-0.070000000298,-0.070000000298,-0.070000000298,-0.070000000298,-0.070000000298,-0.070000000298,-0.070000000298,-0.070000000298,-0.070000000298,-0.070000000298,-0.070000000298,-0.0399999991059,-0.0399999991059,-0.0599999986589,-0.0599999986589,-0.0599999986589,-0.0399999991059,-0.0399999991059,-0.0599999986589,-0.0599999986589,-0.0599999986589,-0.0599999986589,-0.0599999986589,-0.0599999986589,-0.0599999986589,-0.0599999986589,-0.0599999986589,-0.0599999986589,-0.0599999986589,-0.0599999986589,-0.0499999970198,-0.0499999970198,-0.0499999970198,-0.0499999970198,-0.0499999970198,-0.0499999970198,-0.0399999991059,-0.0399999991059,-0.0399999991059,-0.0299999937415,-0.0299999937415,-0.0199999958277,-0.0199999958277,-0.0199999958277,-0.00999999791384,-0.00999999791384,-0.00999999791384,0,0,0,0.0100000053644,0.0100000053644,0.0100000053644,0.0200000107288,0.0200000107288,0.0100000053644,0.0100000053644,0.0100000053644,0.0100000053644,0.0100000053644,0.0100000053644,0,0,0,0,0,-0.00999999791384,-0.00999999791384,-0.00999999791384,-0.00999999791384,-0.00999999791384,-0.00999999791384,-0.00999999791384,-0.00999999791384,-0.00999999791384,-0.00999999791384,0,0,0,0,0,0,0.0100000053644,0.0100000053644,0.0100000053644,0.0100000053644,0.0100000053644,0.0100000053644,0.0100000053644,0,0,0,0
0,0,-0.00999999791384,-0.00999999791384,-0.00999999791384,-0.00999999791384,-0.00999999791384,-0.00999999791384,-0.00999999791384,-0.0199999958277,-0.0199999958277,-0.0199999958277,-0.00999999791384,-0.00999999791384,-0.00999999791384,-0.00999999791384,-0.00999999791384,-0.00999999791384,0,0,0,0,0.0100000053644,0.0100000053644,0.0100000053644,0.0400000102818,0.0200000107288,0.0200000107288,0.0500000081956,0.0600000061095,0.0600000061095,0.0600000061095,0.0700000077486,0.0700000077486,0.0700000077486,0.0799999982119,0.0799999982119,0.0799999982119,0.0900000035763,0.0900000035763,0.0900000035763,0.0900000035763,0.0799999982119,0.0799999982119,0.0700000077486,0.0700000077486,0.0600000061095,0.0600000061095,0.0500000081956,0.0300000086427,0.0500000081956,0.0400000102818,0.0400000102818,0.0300000049174,0,0,-0.00999999791384,-0.00999999791384,-0.00999999791384,-0.0199999958277,-0.0199999958277,-0.0199999958277,-0.0199999958277,-0.00999999791384,-0.00999999791384,0,0,0,0.0100000053644,0.0100000053644,0.0100000053644,0.0200000107288,0.0200000107288,0.0200000107288,0.0300000086427,0.0300000086427,0.0400000065565,0.0400000065565,0.0400000065565,0.0500000081956,0.0500000081956,0.0400000065565,0.0400000065565,0.0300000086427,0.0300000086427,0.0500000081956,0.0100000053644,0.0100000053644,0,0,0.019999999553,-0.0199999958277,-0.0199999958277,-0.0299999937415,-0.0299999937415,-0.00999999418855,-0.0499999970198,-0.0499999970198,-0.0599999986589,-0.0599999986589,-0.070000000298,-0.070000000298,-0.070000000298,-0.070000000298,-0.070000000298,-0.070000000298,-0.070000000298,-0.070000000298,-0.070000000298,-0.070000000298,-0.070000000298,-0.070000000298,-0.070000000298,-0.070000000298,-0.070000000298,-0.070000000298,-0.070000000298,-0.070000000298,-0.070000000298,-0.070000000298,-0.070000000298,-0.0399999991059,-0.0399999991059,-0.0399999991059,-0.0399999991059,-0.0399999991059,-0.0399999991059,-0.0399999991059,-0.0599999986589,-0.0599999986589,-0.0599999986589,-0.0599999986589,-0.0599999986589,-0.0599999986589,-0.0599999986589,-0.0599999986589,-0.0599999986589,-0.0499999970198,-0.0499999970198,-0.0499999970198,-0.0499999970198,-0.0499999970198,-0.0499999970198,-0.0399999991059,-0.0399999991059,-0.0399999991059,-0.0299999937415,-0.0299999937415,-0.0299999937415,-0.0199999958277,-0.0199999958277,-0.0199999958277,-0.00999999791384,-0.00999999791384,-0.00999999791384,0,0,0,0.0100000053644,0.0100000053644,0.0100000053644,0.0100000053644,0.0100000053644,0.0100000053644,0.0100000053644,0.0100000053644,0,0,0,0,0,-0.00999999791384,-0.00999999791384,-0.00999999791384,-0.00999999791384,-0.00999999791384,-0.00999999791384,-0.00999999791384,-0.0199999958277,-0.0199999958277,-0.0199999958277,-0.00999999791384,-0.00999999791384,-0.00999999791384,0,0,0,0,0,0.0100000053644,0.0100000053644,0.0100000053644,0.0100000053644,0.0100000053644,0.0100000053644,0.0100000053644,0.0100000053644,0,0,0
0,0,-0.00999999791384,-0.00999999791384,-0.00999999791384,-0.00999999791384,-0.00999999791384,-0.00999999791384,-0.00999999791384,-0.00999999791384,-0.00999999791384,-0.00999999791384,-0.00999999791384,-0.00999999791384,-0.00999999791384,-0.00999999791384,-0.00999999791384,0,0,0,0,0.0100000053644,0.0100000053644,0.0100000053644,0.0400000102818,0.0500000081956,0.0300000086427,0.0300000086427,0.0600000061095,0.0400000065565,0.0400000065565,0.0700000077486,0.0500000081956,0.0500000081956,0.0799999982119,0.0599999986589,0.0599999986589,0.0900000035763,0.0700000077486,0.0700000077486,0.0700000077486,0.0700000077486,0.0599999986589,0.0599999986589,0.0799999982119,0.0700000077486,0.0700000077486,0.0600000061095,0.0300000086427,0.0300000086427,0.0300000086427,0.0200000107288,0.0200000107288,0.0100000053644,0.0100000053644,0,0,-0.00999999791384,-0.00999999791384,-0.0199999958277,-0.0199999958277,-0.0199999958277,-0.00999999791384,-0.00999999791384,-0.00999999791384,0,0,0,0.0100000053644,0.0100000053644,0.0100000053644,0.0200000107288,0.0200000107288,0.0200000107288,0.0300000086427,0.0300000086427,0.0400000065565,0.0400000065565,0.0400000065565,0.0500000081956,0.0500000081956,0.0400000065565,0.0400000065565,0.0300000086427,0.0300000086427,0.0500000081956,0.0100000053644,0.0100000053644,0,0,0.019999999553,-0.0199999958277,-0.0199999958277,-0.0299999937415,-0.0299999937415,-0.00999999418855,-0.0499999970198,-0.0499999970198,-0.0599999986589,-0.0599999986589,-0.070000000298,-0.070000000298,-0.070000000298,-0.070000000298,-0.070000000298,-0.070000000298,-0.070000000298,-0.070000000298,-0.070000000298,-0.070000000298,-0.070000000298,-0.070000000298,-0.070000000298,-0.070000000298,-0.070000000298,-0.070000000298,-0.070000000298,-0.070000000298,-0.070000000298,-0.0500000007451,-0.0500000007451,-0.070000000298,-0.070000000298,-0.070000000298,-0.070000000298,-0.070000000298,-0.070000000298,-0.0399999991059,-0.0399999991059,-0.0599999986589,-0.0599999986589,-0.0599999986589,-0.0599999986589,-0.0599999986589,-0.0599999986589,-0.0599999986589,-0.0599999986589,-0.0499999970198,-0.0499999970198,-0.0499999970198,-0.0499999970198,-0.0499999970198,-0.0399999991059,-0.0399999991059,-0.0399999991059,-0.0399999991059,-0.0299999937415,-0.0299999937415,-0.0299999937415,-0.0199999958277,-0.0199999958277,-0.0199999958277,-0.00999999791384,-0.00999999791384,-0.00999999791384,0,0,0,0.0100000053644,0.0100000053644,0.0100000053644,0.0100000053644,0.0100000053644,0.0100000053644,0,0,0,0,0,0,-0.00999999791384,-0.00999999791384,-0.00999999791384,-0.00999999791384,-0.00999999791384,-0.0199999958277,-0.0199999958277,-0.0199999958277,-0.0199999958277,-0.0199999958277,-0.0199999958277,-0.0199999958277,-0.00999999791384,-0.00999999791384,0,0,0,0,0,0.0100000053644,0.0100000053644,0.0100000053644,0.0100000053644,0.0100000053644,0.0100000053644,0.0100000053644,0.0100000053644,0,0,0
0,0,-0.00999999791384,-0.00999999791384,-0.00999999791384,-0.00999999791384,-0.00999999791384,-0.00999999791384,-0.00999999791384,-0.00999999791384,-0.00999999791384,-0.00999999791384,-0.00999999791384,-0.00999999791384,-0.00999999791384,-0.00999999791384,-0.00999999791384,0,0,0,0.0100000053644,0.0100000053644,0.0100000053644,0.0200000107288,0.0200000107288,0.0300000086427,0.0300000086427,0.0300000086427,0.0400000065565,0.0400000065565,0.0400000065565,0.0500000081956,0.0500000081956,0.0500000081956,0.0599999986589,0.0599999986589,0.0599999986589,0.0700000077486,0.0700000077486,0.0700000077486,0.0700000077486,0.0700000077486,0.0599999986589,0.0599999986589,0.0599999986589,0.0500000081956,0.0500000081956,0.0400000065565,0.0400000065565,0.0300000086427,0.0300000086427,0.0200000107288,0.0200000107288,0.0100000053644,0.0100000053644,0,0,-0.00999999791384,-0.00999999791384,-0.0199999958277,-0.0199999958277,-0.0199999958277,-0.00999999791384,-0.00999999791384,-0.00999999791384,0,0,0,0.0100000053644,0.0100000053644,0.0100000053644,0.0200000107288,0.0200000107288,0.0200000107288,0.0300000086427,0.0300000086427,0.0400000065565,0.0400000065565,0.0400000065565,0.0500000081956,0.0500000081956,0.0400000065565,0.0400000065565,0.0300000086427,0.0300000086427,0.0500000081956,0.0100000053644,0.0300000049174,0,0,0.019999999553,-0.0199999958277,-0.0199999958277,-0.0299999937415,-0.00999999418855,-0.00999999418855,-0.019999999553,-0.0299999974668,-0.0599999986589,-0.0599999986589,-0.0599999986589,-0.0399999991059,-0.070000000298,-0.070000000298,-0.070000000298,-0.070000000298,-0.070000000298,-0.070000000298,-0.070000000298,-0.070000000298,-0.070000000298,-0.070000000298,-0.070000000298,-0.070000000298,-0.070000000298,-0.070000000298,-0.070000000298,-0.070000000298,-0.0799999982119,-0.0500000007451,-0.0500000007451,-0.0799999982119,-0.070000000298,-0.070000000298,-0.070000000298,-0.070000000298,-0.070000000298,-0.070000000298,-0.070000000298,-0.070000000298,-0.0599999986589,-0.0599999986589,-0.0599999986589,-0.0599999986589,-0.0599999986589,-0.0599999986589,-0.0599999986589,-0.0499999970198,-0.0499999970198,-0.0499999970198,-0.0499999970198,-0.0499999970198,-0.0399999991059,-0.0399999991059,-0.0399999991059,-0.0399999991059,-0.0299999937415,-0.0299999937415,-0.0299999937415,-0.0199999958277,-0.0199999958277,-0.0199999958277,-0.00999999791384,-0.00999999791384,-0.00999999791384,0,0,0,0,0.0100000053644,0.0100000053644,0.0100000053644,0.0100000053644,0,0,0,0,0,0,-0.00999999791384,-0.00999999791384,-0.00999999791384,-0.00999999791384,-0.00999999791384,-0.0199999958277,-0.0199999958277,-0.0199999958277,-0.0199999958277,-0.0199999958277,-0.0199999958277,-0.0199999958277,-0.0199999958277,-0.00999999791384,-0.00999999791384,0,0,0,0,0,0.0100000053644,0.0100000053644,0.0100000053644,0.0100000053644,0.0100000053644,0.0100000053644,0.0100000053644,0.0100000053644,0,0,0
0,0,-0.00999999791384,-0.00999999791384,-0.00999999791384,-0.00999999791384,-0.00999999791384,-0.00999999791384,-0.00999999791384,-0.00999999791384,-0.00999999791384,-0.00999999791384,-0.00999999791384,-0.00999999791384,-0.00999999791384,-0.00999999791384,0,0,0,0.0100000053644,0.0100000053644,0.0100000053644,0.0200000107288,0.0200000107288,0.0200000107288,0.0300000086427,0.0300000086427,0.0300000086427,0.0400000065565,0.0400000065565,0.0400000065565,0.0500000081956,0.0500000081956,0.0500000081956,0.0599999986589,0.0599999986589,0.0599999986589,0.0599999986589,0.0700000077486,0.0700000077486,0.0700000077486,0.0700000077486,0.0599999986589,0.0599999986589,0.0599999986589,0.0500000081956,0.0500000081956,0.0400000065565,0.0400000065565,0.0300000086427,0.0300000086427,0.0200000107288,0.0200000107288,0.0100000053644,0.0100000053644,0,0,-0.00999999791384,-0.00999999791384,-0.0199999958277,-0.0199999958277,-0.0199999958277,-0.00999999791384,-0.00999999791384,-0.00999999791384,0,0,0,0.0100000053644,0.0100000053644,0.0100000053644,0.0200000107288,0.0200000107288,0.0200000107288,0.0300000086427,0.0300000086427,0.0400000065565,0.0400000065565,0.0400000065565,0.0500000081956,0.0500000081956,0.0400000065565,0.0400000065565,0.0300000086427,0.0300000086427,0.0500000081956,0.0200000107288,0.0400000102818,0,0,0.019999999553,0.0100000016391,0.0100000016391,3.72529029846e-09,3.72529029846e-09,-0.00999999418855,-0.00999999418855,-0.019999999553,-0.0299999974668,-0.0599999986589,-0.0599999986589,-0.0599999986589,-0.0399999991059,-0.0399999991059,-0.0399999991059,-0.0399999991059,-0.0399999991059,-0.0399999991059,-0.070000000298,-0.070000000298,-0.070000000298,-0.070000000298,-0.070000000298,-0.070000000298,-0.070000000298,-0.070000000298,-0.070000000298,-0.070000000298,-0.0799999982119,-0.0799999982119,-0.0799999982119,-0.0799999982119,-0.070000000298,-0.070000000298,-0.070000000298,-0.070000000298,-0.070000000298,-0.070000000298,-0.070000000298,-0.070000000298,-0.0599999986589,-0.0599999986589,-0.0599999986589,-0.0599999986589,-0.0599999986589,-0.0599999986589,-0.0599999986589,-0.0599999986589,-0.0499999970198,-0.0499999970198,-0.0499999970198,-0.0499999970198,-0.0499999970198,-0.0399999991059,-0.0399999991059,-0.0399999991059,-0.0299999937415,-0.0299999937415,-0.0299999937415,-0.0199999958277,-0.0199999958277,-0.0199999958277,-0.00999999791384,-0.00999999791384,-0.00999999791384,-0.00999999791384,0,0,0,0.0100000053644,0.0100000053644,0.0100000053644,0.0100000053644,0,0,0,0,0,0,-0.00999999791384,-0.00999999791384,-0.00999999791384,-0.00999999791384,-0.00999999791384,-0.00999999791384,-0.0199999958277,-0.0199999958277,-0.0199999958277,-0.0199999958277,-0.0199999958277,-0.0199999958277,-0.0199999958277,-0.00999999791384,-0.00999999791384,0,0,0,0,0,0.0100000053644,0.0100000053644,0.0100000053644,0.0100000053644,0.0100000053644,0.0100000053644,0.0100000053644,0.0100000053644,0,0,0
0,0,0.019999999553,-0.00999999791384,-0.00999999791384,-0.00999999791384,-0.00999999791384,-0.00999999791384,-0.00999999791384,-0.00999999791384,-0.00999999791384,-0.00999999791384,-0.00999999791384,-0.00999999791384,-0.00999999791384,0,0,0,0,0.0100000053644,0.0100000053644,0.0100000053644,0.0200000107288,0.0200000107288,0.0200000107288,0.0300000086427,0.0300000086427,0.0300000086427,0.0400000065565,0.0400000065565,0.0400000065565,0.0400000065565,0.0500000081956,0.0500000081956,0.0500000081956,0.0500000081956,0.0599999986589,0.0599999986589,0.0599999986589,0.0700000077486,0.0900000035763,0.0900000035763,0.0799999982119,0.0500000081956,0.0500000081956,0.0700000077486,0.0700000077486,0.0600000061095,0.0600000061095,0.0500000081956,0.0200000107288,0.0200000107288,0.0100000053644,0.0100000053644,0.0100000053644,0,0,-0.00999999791384,-0.00999999791384,-0.0199999958277,-0.0199999958277,-0.0199999958277,-0.00999999791384,-0.00999999791384,-0.00999999791384,0,0,0,0.0100000053644,0.0100000053644,0.0100000053644,0.0200000107288,0.0200000107288,0.0200000107288,0.0300000086427,0.0300000086427,0.0300000086427,0.0400000065565,0.0400000065565,0.0400000065565,0.0400000065565,0.0400000065565,0.0400000065565,0.0300000086427,0.0300000086427,0.0200000107288,0.0200000107288,0.0400000102818,0.0100000053644,0,0,-0.00999999791384,-0.00999999791384,0.0100000016391,-0.0199999958277,3.72529029846e-09,-0.00999999418855,-0.00999999418855,-0.019999999553,-0.019999999553,-0.0299999974668,-0.0299999974668,-0.0299999974668,-0.0299999974668,-0.0299999974668,-0.0299999974668,-0.0399999991059,-0.0599999986589,-0.0599999986589,-0.0599999986589,-0.0599999986589,-0.070000000298,-0.070000000298,-0.070000000298,-0.070000000298,-0.070000000298,-0.070000000298,-0.070000000298,-0.070000000298,-0.070000000298,-0.070000000298,-0.070000000298,-0.070000000298,-0.070000000298,-0.070000000298,-0.070000000298,-0.070000000298,-0.070000000298,-0.070000000298,-0.0599999986589,-0.0599999986589,-0.0599999986589,-0.0599999986589,-0.0599999986589,-0.0599999986589,-0.0599999986589,-0.0599999986589,-0.0599999986589,-0.0599999986589,-0.0499999970198,-0.0499999970198,-0.0499999970198,-0.0499999970198,-0.0399999991059,-0.0399999991059,-0.0399999991059,-0.0299999937415,-0.0299999937415,-0.0299999937415,-0.0199999958277,-0.0199999958277,-0.0199999958277,-0.0199999958277,-0.00999999791384,-0.00999999791384,-0.00999999791384,0,0,0,0.0100000053644,0.0100000053644,0.0100000053644,0.0100000053644,0.0100000053644,0,0,0,0,0,0,-0.00999999791384,-0.00999999791384,-0.00999999791384,-0.00999999791384,-0.00999999791384,-0.00999999791384,-0.00999999791384,-0.00999999791384,-0.0199999958277,-0.0199999958277,-0.0199999958277,-0.00999999791384,-0.00999999791384,-0.00999999791384,0,0,0,0,0,0.0100000053644,0.0100000053644,0.0100000053644,0.0100000053644,0.0100000053644,0.0100000053644,0.0100000053644,0,0,0,0
0,0,0.019999999553,-0.00999999791384,-0.00999999791384,-0.00999999791384,-0.00999999791384,-0.00999999791384,-0.00999999791384,-0.00999999791384,-0.00999999791384,-0.00999999791384,-0.00999999791384,-0.00999999791384,0,0,0,0,0.0100000053644,0.0100000053644,0.0100000053644,0.0200000107288,0.0200000107288,0.0200000107288,0.0300000086427,0.0300000086427,0.0300000086427,0.0300000086427,0.0400000065565,0.0400000065565,0.0400000065565,0.0400000065565,0.0400000065565,0.0500000081956,0.0500000081956,0.0500000081956,0.0500000081956,0.0599999986589,0.0799999982119,0.0900000035763,0.0900000035763,0.0799999982119,0.0799999982119,0.0500000081956,0.0500000081956,0.0700000077486,0.0600000061095,0.0600000061095,0.0500000081956,0.0200000107288,0.0200000107288,0.0200000107288,0.0100000053644,0.0100000053644,0,0,0,-0.00999999791384,-0.00999999791384,-0.0199999958277,-0.0199999958277,-0.0199999958277,-0.00999999791384,-0.00999999791384,-0.00999999791384,0,0,0,0.0100000053644,0.0100000053644,0.0100000053644,0.0200000107288,0.0200000107288,0.0200000107288,0.0300000086427,0.0300000086427,0.0300000086427,0.0400000065565,0.0400000065565,0.0400000065565,0.0400000065565,0.0400000065565,0.0400000065565,0.0300000086427,0.0300000086427,0.0200000107288,0.0200000107288,0.0100000053644,0.0100000053644,0,0,0.019999999553,-0.00999999791384,-0.0199999958277,-0.0199999958277,-0.0199999958277,3.72529029846e-09,-0.00999999418855,-0.00999999418855,-0.019999999553,-0.019999999553,-0.019999999553,-0.019999999553,-0.0299999974668,-0.0499999970198,-0.0499999970198,-0.0299999974668,-0.0599999986589,-0.0599999986589,-0.0599999986589,-0.0599999986589,-0.0599999986589,-0.0599999986589,-0.0599999986589,-0.0599999986589,-0.070000000298,-0.070000000298,-0.070000000298,-0.070000000298,-0.070000000298,-0.070000000298,-0.070000000298,-0.070000000298,-0.070000000298,-0.070000000298,-0.070000000298,-0.070000000298,-0.0399999991059,-0.0599999986589,-0.0599999986589,-0.0599999986589,-0.0599999986589,-0.0599999986589,-0.0599999986589,-0.0599999986589,-0.0599999986589,-0.0599999986589,-0.0599999986589,-0.0599999986589,-0.0599999986589,-0.0499999970198,-0.0499999970198,-0.0499999970198,-0.0399999991059,-0.0399999991059,-0.0399999991059,-0.0399999991059,-0.0299999937415,-0.0299999937415,-0.0299999937415,-0.0199999958277,-0.0199999958277,-0.0199999958277,-0.00999999791384,-0.00999999791384,-0.00999999791384,0,0,0,0.0100000053644,0.0100000053644,0.0100000053644,0.0100000053644,0.0100000053644,0,0,0,0,0,0,0,0,-0.00999999791384,-0.00999999791384,-0.00999999791384,-0.00999999791384,-0.00999999791384,-0.00999999791384,-0.00999999791384,-0.00999999791384,-0.00999999791384,-0.00999999791384,-0.00999999791384,0,0,0,0,0,0,0.0100000053644,0.0100000053644,0.0100000053644,0.0100000053644,0.0100000053644,0.0100000053644,0.0100000053644,0,0,0,0
0,0,0,-0.00999999791384,-0.00999999791384,-0.00999999791384,-0.00999999791384,-0.00999999791384,-0.00999999791384,-0.00999999791384,-0.00999999791384,-0.00999999791384,0,0,0,0,0,0.0100000053644,0.0100000053644,0.0100000053644,0.0200000107288,0.0200000107288,0.0200000107288,0.0200000107288,0.0300000086427,0.0300000086427,0.0300000086427,0.0300000086427,0.0300000086427,0.0400000065565,0.0400000065565,0.0400000065565,0.0400000065565,0.0400000065565,0.0500000081956,0.0500000081956,0.0500000081956,0.0500000081956,0.0500000081956,0.0500000081956,0.0500000081956,0.0500000081956,0.0700000077486,0.0400000065565,0.0400000065565,0.0600000061095,0.0600000061095,0.0500000081956,0.0200000107288,0.0200000107288,0.0200000107288,0.0100000053644,0.0100000053644,0.0100000053644,0,0,-0.00999999791384,-0.00999999791384,-0.00999999791384,-0.0199999958277,-0.0199999958277,-0.0199999958277,-0.0199999958277,-0.00999999791384,-0.00999999791384,0,0,0,0.0100000053644,0.0100000053644,0.0100000053644,0.0200000107288,0.0200000107288,0.0200000107288,0.0300000086427,0.0300000086427,0.0300000086427,0.0400000065565,0.0400000065565,0.0400000065565,0.0400000065565,0.0400000065565,0.0400000065565,0.0300000086427,0.0300000086427,0.0200000107288,0.0200000107288,0.0200000107288,0.0100000053644,0.0100000053644,0,0,0.019999999553,0.0100000016391,-0.0199999958277,-0.0199999958277,-0.0199999958277,3.72529029846e-09,-0.00999999418855,-0.00999999418855,-0.019999999553,-0.019999999553,-0.0399999991059,-0.019999999553,-0.019999999553,-0.019999999553,-0.019999999553,-0.0299999974668,-0.0499999970198,-0.0499999970198,-0.0599999986589,-0.0599999986589,-0.0599999986589,-0.0599999986589,-0.0599999986589,-0.0599999986589,-0.0599999986589,-0.0599999986589,-0.070000000298,-0.070000000298,-0.070000000298,-0.070000000298,-0.070000000298,-0.070000000298,-0.070000000298,-0.0399999991059,-0.0399999991059,-0.0599999986589,-0.0599999986589,-0.0599999986589,-0.0599999986589,-0.0599999986589,-0.0599999986589,-0.0599999986589,-0.0599999986589,-0.0599999986589,-0.0599999986589,-0.0599999986589,-0.0599999986589,-0.0599999986589,-0.0599999986589,-0.0499999970198,-0.0499999970198,-0.0499999970198,-0.0399999991059,-0.0399999991059,-0.0399999991059,-0.0299999937415,-0.0299999937415,-0.0299999937415,-0.0199999958277,-0.0199999958277,-0.0199999958277,-0.00999999791384,-0.00999999791384,-0.00999999791384,0,0,0,0.0100000053644,0.0100000053644,0.0100000053644,0.0100000053644,0.0100000053644,0.0100000053644,0,0,0,0,0,0,0,0,0,-0.00999999791384,-0.00999999791384,-0.00999999791384,-0.00999999791384,-0.00999999791384,-0.00999999791384,-0.00999999791384,-0.00999999791384,0,0,0,0,0,0,0,0,0.0100000053644,0.0100000053644,0.0100000053644,0.0100000053644,0.0300000049174,0,0,0,0,0
0,0,0,0.019999999553,0.019999999553,-0.00999999791384,-0.00999999791384,-0.00999999791384,-0.00999999791384,-0.00999999791384,-0.00999999791384,0,0,0,0,0,0.0100000053644,0.0100000053644,0.0100000053644,0.0100000053644,0.0200000107288,0.0200000107288,0.0200000107288,0.0200000107288,0.0300000086427,0.0300000086427,0.0300000086427,0.0300000086427,0.0300000086427,0.0300000086427,0.0400000065565,0.0400000065565,0.0400000065565,0.0400000065565,0.0400000065565,0.0400000065565,0.0400000065565,0.0500000081956,0.0500000081956,0.0500000081956,0.0500000081956,0.0500000081956,0.0700000077486,0.0400000065565,0.0400000065565,0.0600000061095,0.0500000081956,0.0200000107288,0.0200000107288,0.0200000107288,0.0100000053644,0.0100000053644,0.0100000053644,0,0,0,-0.00999999791384,-0.00999999791384,-0.0199999958277,-0.0199999958277,-0.0199999958277,-0.0199999958277,-0.0199999958277,-0.00999999791384,-0.00999999791384,-0.00999999791384,0,0,0,0.0100000053644,0.0100000053644,0.0100000053644,0.0200000107288,0.0200000107288,0.0200000107288,0.0300000086427,0.0300000086427,0.0300000086427,0.0400000065565,0.0400000065565,0.0400000065565,0.0400000065565,0.0400000065565,0.0300000086427,0.0300000086427,0.0200000107288,0.0200000107288,0.0200000107288,0.0100000053644,0.0100000053644,0.0300000049174,0,0,0.019999999553,0.0100000016391,0.0100000016391,0.0100000016391,3.72529029846e-09,3.72529029846e-09,3.72529029846e-09,-0.00999999418855,-0.00999999418855,-0.00999999418855,-0.00999999418855,-0.00999999418855,-0.019999999553,-0.0399999991059,-0.0499999970198,-0.0499999970198,-0.019999999553,-0.019999999553,-0.0299999974668,-0.0499999970198,-0.0499999970198,-0.0599999986589,-0.0599999986589,-0.0599999986589,-0.0599999986589,-0.0599999986589,-0.0599999986589,-0.0599999986589,-0.0599999986589,-0.0599999986589,-0.0599999986589,-0.0599999986589,-0.0599999986589,-0.0599999986589,-0.0599999986589,-0.0599999986589,-0.0599999986589,-0.0599999986589,-0.0599999986589,-0.0599999986589,-0.0599999986589,-0.0599999986589,-0.0599999986589,-0.0599999986589,-0.0599999986589,-0.0599999986589,-0.0599999986589,-0.0599999986589,-0.0499999970198,-0.0499999970198,-0.0499999970198,-0.0399999991059,-0.0399999991059,-0.0399999991059,-0.0299999937415,-0.0299999937415,-0.0299999937415,-0.0199999958277,-0.0199999958277,-0.0199999958277,-0.00999999791384,-0.00999999791384,-0.00999999791384,0,0,0,0.0100000053644,0.0100000053644,0.0100000053644,0.0100000053644,0.0100000053644,0.0100000053644,0.0100000053644,0,0,0,0,0,0,0,0,0,0,0,0,0,-0.00999999791384,-0.00999999791384,0,0,0,0,0,0,0,0,0,0,0.0100000053644,0.0300000049174,0.0300000049174,0,0,0,0,0,0
0,0,0,0,0.019999999553,-0.00999999791384,-0.00999999791384,-0.00999999791384,-0.00999999791384,0,0,0,0,0,0,0,0.0100000053644,0.0100000053644,0.0100000053644,0.0200000107288,0.0200000107288,0.0200000107288,0.0200000107288,0.0300000086427,0.0300000086427,0.0300000086427,0.0300000086427,0.0300000086427,0.0300000086427,0.0300000086427,0.0300000086427,0.0400000065565,0.0400000065565,0.0400000065565,0.0400000065565,0.0400000065565,0.0400000065565,0.0400000065565,0.0400000065565,0.0400000065565,0.0700000077486,0.0700000077486,0.0600000061095,0.0300000086427,0.0300000086427,0.0500000081956,0.0200000107288,0.0200000107288,0.0200000107288,0.0100000053644,0.0100000053644,0.0100000053644,0,0,0,-0.00999999791384,-0.00999999791384,-0.00999999791384,-0.0199999958277,-0.0199999958277,-0.0199999958277,-0.0199999958277,-0.0199999958277,-0.00999999791384,-0.00999999791384,-0.00999999791384,0,0,0,0.0100000053644,0.0100000053644,0.0100000053644,0.0200000107288,0.0200000107288,0.0200000107288,0.0300000086427,0.0300000086427,0.0300000086427,0.0400000065565,0.0400000065565,0.0400000065565,0.0400000065565,0.0400000065565,0.0300000086427,0.0300000086427,0.0300000086427,0.0200000107288,0.0200000107288,0.0200000107288,0.0100000053644,0.0100000053644,0.0300000049174,0,0,0.019999999553,-0.00999999791384,-0.00999999791384,0.0100000016391,0.0100000016391,3.72529029846e-09,3.72529029846e-09,3.72529029846e-09,3.72529029846e-09,-0.00999999418855,-0.0299999937415,-0.0399999991059,-0.00999999418855,-0.00999999418855,-0.019999999553,-0.0399999991059,-0.0399999991059,-0.0499999970198,-0.0499999970198,-0.0499999970198,-0.0499999970198,-0.0499999970198,-0.0599999986589,-0.0599999986589,-0.0599999986589,-0.0599999986589,-0.0599999986589,-0.0599999986589,-0.0599999986589,-0.0599999986589,-0.0599999986589,-0.0599999986589,-0.0599999986589,-0.0599999986589,-0.0599999986589,-0.0599999986589,-0.0599999986589,-0.0599999986589,-0.0599999986589,-0.0599999986589,-0.0599999986589,-0.0599999986589,-0.0599999986589,-0.0599999986589,-0.0599999986589,-0.0599999986589,-0.0599999986589,-0.0599999986589,-0.0499999970198,-0.0499999970198,-0.0499999970198,-0.0399999991059,-0.0399999991059,-0.0299999937415,-0.0299999937415,-0.0299999937415,-0.0199999958277,-0.0199999958277,-0.0199999958277,-0.00999999791384,-0.00999999791384,-0.00999999791384,0,0,0,0.0100000053644,0.0100000053644,0.0100000053644,0.0100000053644,0.0100000053644,0.0100000053644,0.0100000053644,0.0100000053644,0.0100000053644,0,0,0,0,0,0,0,0,0,0,0,0,0,0,0,0,0,0,0,0,0,0,0,0,0,0,0,0,0,0,0,0
0,0,0,0,0,0,0,0,0,0,0,0,0,0,0,0.0100000053644,0.0100000053644,0.0100000053644,0.0200000107288,0.0200000107288,0.0200000107288,0.0200000107288,0.0300000086427,0.0300000086427,0.0300000086427,0.0300000086427,0.0300000086427,0.0300000086427,0.0300000086427,0.0300000086427,0.0300000086427,0.0300000086427,0.0300000086427,0.0300000086427,0.0300000086427,0.0400000065565,0.0400000065565,0.0400000065565,0.0400000065565,0.0400000065565,0.0400000065565,0.0300000086427,0.0300000086427,0.0300000086427,0.0300000086427,0.0200000107288,0.0200000107288,0.0200000107288,0.0100000053644,0.0100000053644,0.0100000053644,0,0,0,-0.00999999791384,-0.00999999791384,-0.00999999791384,-0.00999999791384,-0.0199999958277,-0.0199999958277,-0.0199999958277,-0.0199999958277,-0.0199999958277,-0.00999999791384,-0.00999999791384,-0.00999999791384,0,0,0,0.0100000053644,0.0100000053644,0.0100000053644,0.0200000107288,0.0200000107288,0.0200000107288,0.0300000086427,0.0300000086427,0.0300000086427,0.0400000065565,0.0400000065565,0.0400000065565,0.0400000065565,0.0400000065565,0.0300000086427,0.0300000086427,0.0300000086427,0.0200000107288,0.0200000107288,0.0200000107288,0.0400000102818,0.0100000053644,0.0100000053644,0.0300000049174,0,0.019999999553,0.019999999553,-0.00999999791384,-0.00999999791384,-0.00999999791384,0.0100000016391,0.0100000016391,3.72529029846e-09,-0.0199999958277,-0.0299999937415,3.72529029846e-09,3.72529029846e-09,-0.00999999418855,-0.0299999937415,-0.0399999991059,-0.0399999991059,-0.0399999991059,-0.0399999991059,-0.0399999991059,-0.0499999970198,-0.0499999970198,-0.0499999970198,-0.0499999970198,-0.0499999970198,-0.0599999986589,-0.0599999986589,-0.0599999986589,-0.0599999986589,-0.0599999986589,-0.0599999986589,-0.0599999986589,-0.0599999986589,-0.0599999986589,-0.0599999986589,-0.0599999986589,-0.0599999986589,-0.0599999986589,-0.0599999986589,-0.0599999986589,-0.0599999986589,-0.0599999986589,-0.0599999986589,-0.0599999986589,-0.0599999986589,-0.0599999986589,-0.0599999986589,-0.0599999986589,-0.0599999986589,-0.0499999970198,-0.0499999970198,-0.0499999970198,-0.0399999991059,-0.0399999991059,-0.0399999991059,-0.0299999937415,-0.0299999937415,-0.0299999937415,-0.0199999958277,-0.0199999958277,-0.00999999791384,-0.00999999791384,-0.00999999791384,0,0,0,0.0100000053644,0.0100000053644,0.0100000053644,0.0100000053644,0.0100000053644,0.0100000053644,0.0100000053644,0.0100000053644,0.0100000053644,0.0100000053644,0.0100000053644,0.0100000053644,0.0100000053644,0,0,0,0,0,0,0,0,0,0,0,0,0,0,0,0,0,0,0,0,0,0,0,0,0,0,0,0
0,0,0,0,0,0,0,0,0,0,0,0,0,0,0.0100000053644,0.0100000053644,0.0100000053644,0.0100000053644,0.0200000107288,0.0200000107288,0.0200000107288,0.0300000086427,0.0300000086427,0.0300000086427,0.0300000086427,0.0300000086427,0.0300000086427,0.0300000086427,0.0300000086427,0.0300000086427,0.0300000086427,0.0300000086427,0.0300000086427,0.0300000086427,0.0300000086427,0.0300000086427,0.0300000086427,0.0300000086427,0.0300000086427,0.0300000086427,0.0300000086427,0.0300000086427,0.0300000086427,0.0200000107288,0.0200000107288,0.0200000107288,0.0200000107288,0.0100000053644,0.0100000053644,0.0100000053644,0,0,0,0,-0.00999999791384,-0.00999999791384,-0.00999999791384,-0.0199999958277,-0.0199999958277,-0.0199999958277,-0.0199999958277,-0.0199999958277,-0.0199999958277,-0.00999999791384,-0.00999999791384,-0.00999999791384,0,0,0,0.0100000053644,0.0100000053644,0.0100000053644,0.0200000107288,0.0200000107288,0.0200000107288,0.0300000086427,0.0300000086427,0.0300000086427,0.0400000065565,0.0400000065565,0.0400000065565,0.0400000065565,0.0400000065565,0.0300000086427,0.0300000086427,0.0300000086427,0.0300000086427,0.0200000107288,0.0200000107288,0.0200000107288,0.0100000053644,0.0100000053644,0.0100000053644,0.0100000053644,0.0300000049174,0,0,-0.00999999791384,0.019999999553,0.019999999553,0.0100000016391,-0.0199999958277,0.0100000016391,0.0100000016391,3.72529029846e-09,-0.0199999958277,-0.0299999937415,-0.0299999937415,-0.0299999937415,-0.0299999937415,-0.0399999991059,-0.0399999991059,-0.0399999991059,-0.0399999991059,-0.0399999991059,-0.0499999970198,-0.0499999970198,-0.0499999970198,-0.0499999970198,-0.0499999970198,-0.0599999986589,-0.0599999986589,-0.0599999986589,-0.0599999986589,-0.0599999986589,-0.0599999986589,-0.0599999986589,-0.0599999986589,-0.0599999986589,-0.0599999986589,-0.0599999986589,-0.0599999986589,-0.0599999986589,-0.0599999986589,-0.0599999986589,-0.0599999986589,-0.0599999986589,-0.0599999986589,-0.0599999986589,-0.0599999986589,-0.0599999986589,-0.0599999986589,-0.0499999970198,-0.0499999970198,-0.0499999970198,-0.0399999991059,-0.0399999991059,-0.0399999991059,-0.0299999937415,-0.0299999937415,-0.0299999937415,-0.0199999958277,-0.0199999958277,-0.0199999958277,-0.00999999791384,-0.00999999791384,0,0,0,0.0100000053644,0.0100000053644,0.0100000053644,0.0100000053644,0.0100000053644,0.0100000053644,0.0100000053644,0.0100000053644,0.0100000053644,0.0100000053644,0.0100000053644,0.0100000053644,0.0100000053644,0.0100000053644,0.0100000053644,0.0100000053644,0.0100000053644,0.0100000053644,0.0100000053644,0.0100000053644,0,0,0,0,0,0,0,0,0,0,0,0,0,0,0,0,0,0,0,0,0
0,0,0,0,0,0,0,0,0,0,0,0,0,0.0100000053644,0.0100000053644,0.0100000053644,0.0100000053644,0.0200000107288,0.0200000107288,0.0200000107288,0.0300000086427,0.0300000086427,0.0300000086427,0.0300000086427,0.0300000086427,0.0300000086427,0.0300000086427,0.0300000086427,0.0300000086427,0.0300000086427,0.0300000086427,0.0300000086427,0.0300000086427,0.0300000086427,0.0300000086427,0.0300000086427,0.0300000086427,0.0300000086427,0.0300000086427,0.0300000086427,0.0300000086427,0.0200000107288,0.0200000107288,0.0200000107288,0.0200000107288,0.0100000053644,0.0100000053644,0.0100000053644,0.0100000053644,0,0,0,0,-0.00999999791384,-0.00999999791384,-0.00999999791384,-0.00999999791384,-0.0199999958277,-0.0199999958277,-0.0199999958277,-0.0199999958277,-0.0199999958277,-0.0199999958277,-0.00999999791384,-0.00999999791384,-0.00999999791384,0,0,0,0,0.0100000053644,0.0100000053644,0.0100000053644,0.0200000107288,0.0200000107288,0.0200000107288,0.0300000086427,0.0300000086427,0.0300000086427,0.0400000065565,0.0400000065565,0.0400000065565,0.0400000065565,0.0300000086427,0.0300000086427,0.0300000086427,0.0300000086427,0.0200000107288,0.0200000107288,0.0200000107288,0.0200000107288,0.0400000102818,0.0100000053644,0.0100000053644,0.0100000053644,0,0.0300000049174,0.0300000049174,0.019999999553,0,0.019999999553,0.019999999553,0.019999999553,0.0100000016391,-0.0199999958277,0.0100000016391,0.0100000016391,3.72529029846e-09,-0.0299999937415,3.72529029846e-09,3.72529029846e-09,-0.00999999418855,-0.0299999937415,-0.0399999991059,-0.0399999991059,-0.0399999991059,-0.0399999991059,-0.0499999970198,-0.0499999970198,-0.0499999970198,-0.0499999970198,-0.0499999970198,-0.0499999970198,-0.0499999970198,-0.0599999986589,-0.0599999986589,-0.0599999986589,-0.0599999986589,-0.0599999986589,-0.0599999986589,-0.0599999986589,-0.0599999986589,-0.0599999986589,-0.0599999986589,-0.0599999986589,-0.0599999986589,-0.0599999986589,-0.0599999986589,-0.0599999986589,-0.0599999986589,-0.0599999986589,-0.0599999986589,-0.0599999986589,-0.0499999970198,-0.0499999970198,-0.0499999970198,-0.0399999991059,-0.0399999991059,-0.0299999937415,-0.0299999937415,-0.0299999937415,-0.0199999958277,-0.0199999958277,-0.0199999958277,-0.00999999791384,-0.00999999791384,0,0,0,0.0100000053644,0.0100000053644,0.0100000053644,0.0100000053644,0.0100000053644,0.0100000053644,0.0100000053644,0.0100000053644,0.0100000053644,0.0100000053644,0.0100000053644,0.0100000053644,0.0100000053644,0.0100000053644,0.0100000053644,0.0100000053644,0.0100000053644,0.0100000053644,0.0100000053644,0.0100000053644,0.0100000053644,0.0100000053644,0.0100000053644,0.0100000053644,0.0100000053644,0.0100000053644,0.0100000053644,0,0,0,0,0,0,0,0,0,0,0,0,0,0
0,0,0,0,0,0,0,0,0,0,0,0,0.0100000053644,0.0100000053644,0.0100000053644,0.0100000053644,0.0200000107288,0.0200000107288,0.0200000107288,0.0200000107288,0.0300000086427,0.0300000086427,0.0300000086427,0.0300000086427,0.0300000086427,0.0300000086427,0.0300000086427,0.0300000086427,0.0300000086427,0.0300000086427,0.0300000086427,0.0300000086427,0.0300000086427,0.0300000086427,0.0200000107288,0.0200000107288,0.0200000107288,0.0200000107288,0.0200000107288,0.0500000081956,0.0500000081956,0.0400000102818,0.0200000107288,0.0100000053644,0.0100000053644,0.0100000053644,0.0100000053644,0,0,0,0,0,-0.00999999791384,-0.00999999791384,-0.00999999791384,-0.00999999791384,-0.0199999958277,-0.0199999958277,-0.0199999958277,-0.0199999958277,-0.0199999958277,-0.0199999958277,-0.0199999958277,-0.0199999958277,-0.00999999791384,-0.00999999791384,-0.00999999791384,0,0,0,0.0100000053644,0.0100000053644,0.0100000053644,0.0200000107288,0.0200000107288,0.0200000107288,0.0300000086427,0.0300000086427,0.0300000086427,0.0400000065565,0.0400000065565,0.0400000065565,0.0400000065565,0.0300000086427,0.0300000086427,0.0300000086427,0.0300000086427,0.0300000086427,0.0200000107288,0.0200000107288,0.0200000107288,0.0200000107288,0.0200000107288,0.0100000053644,0.0400000102818,0.0400000102818,0.0300000049174,0.0100000053644,0,0.0300000049174,0.0300000049174,0.019999999553,0,0.019999999553,0.019999999553,0.0100000016391,-0.00999999791384,0.0100000016391,0.0100000016391,3.72529029846e-09,-0.0199999958277,-0.0299999937415,-0.0299999937415,-0.0299999937415,-0.0399999991059,-0.0399999991059,-0.0399999991059,-0.0399999991059,-0.0399999991059,-0.0499999970198,-0.0499999970198,-0.0499999970198,-0.0499999970198,-0.0499999970198,-0.0499999970198,-0.0499999970198,-0.0499999970198,-0.0599999986589,-0.0599999986589,-0.0599999986589,-0.0599999986589,-0.0599999986589,-0.0599999986589,-0.0599999986589,-0.0599999986589,-0.0599999986589,-0.0599999986589,-0.0599999986589,-0.0599999986589,-0.0599999986589,-0.0599999986589,-0.0599999986589,-0.0599999986589,-0.0499999970198,-0.0499999970198,-0.0499999970198,-0.0399999991059,-0.0399999991059,-0.0399999991059,-0.0299999937415,-0.0299999937415,-0.0199999958277,-0.0199999958277,-0.0199999958277,-0.00999999791384,-0.00999999791384,0,0,0,0.0100000053644,0.0100000053644,0.0100000053644,0.0100000053644,0.0100000053644,0.0100000053644,0.0100000053644,0.0100000053644,0.0100000053644,0.0100000053644,0.0100000053644,0.0100000053644,0.0100000053644,0.0100000053644,0.0100000053644,0.0100000053644,0.0100000053644,0.0100000053644,0.0100000053644,0.0100000053644,0.0100000053644,0.0100000053644,0.0100000053644,0.0100000053644,0.0100000053644,0.0100000053644,0.0100000053644,0.0100000053644,0,0,0,0,0,0,0,0,0,0,0,0,0
0,0,0,0,0,0,0,0,0,0,0,0.0100000053644,0.0100000053644,0.0100000053644,0.0100000053644,0.0100000053644,0.0200000107288,0.0200000107288,0.0200000107288,0.0300000086427,0.0300000086427,0.0300000086427,0.0300000086427,0.0300000086427,0.0300000086427,0.0300000086427,0.0300000086427,0.0300000086427,0.0300000086427,0.0300000086427,0.0300000086427,0.0200000107288,0.0200000107288,0.0200000107288,0.0200000107288,0.0200000107288,0.0200000107288,0.0200000107288,0.0200000107288,0.0200000107288,0.0100000053644,0.0400000102818,0.0400000102818,0.0300000049174,0.0100000053644,0,0,0,0,0,-0.00999999791384,-0.00999999791384,-0.00999999791384,-0.00999999791384,-0.00999999791384,-0.0199999958277,-0.0199999958277,-0.0199999958277,-0.0199999958277,-0.0199999958277,-0.0199999958277,-0.0199999958277,-0.0199999958277,-0.0199999958277,-0.00999999791384,-0.00999999791384,-0.00999999791384,0,0,0,0.0100000053644,0.0100000053644,0.0100000053644,0.0200000107288,0.0200000107288,0.0200000107288,0.0300000086427,0.0300000086427,0.0300000086427,0.0400000065565,0.0400000065565,0.0400000065565,0.0400000065565,0.0300000086427,0.0300000086427,0.0300000086427,0.0300000086427,0.0300000086427,0.0300000086427,0.0500000081956,0.0200000107288,0.0200000107288,0.0200000107288,0.0200000107288,0.0200000107288,0.0200000107288,0.0100000053644,0.0400000102818,0.0400000102818,0.0400000102818,0.0300000049174,0,0.0300000049174,0.0300000049174,0.019999999553,-0.00999999791384,-0.00999999791384,-0.00999999791384,-0.00999999791384,-0.0199999958277,-0.0199999958277,-0.0199999958277,-0.0299999937415,-0.0299999937415,-0.0299999937415,-0.0299999937415,-0.0399999991059,-0.0399999991059,-0.0399999991059,-0.0399999991059,-0.0499999970198,-0.0499999970198,-0.0499999970198,-0.0499999970198,-0.0499999970198,-0.0499999970198,-0.0499999970198,-0.0499999970198,-0.0499999970198,-0.0599999986589,-0.0599999986589,-0.0599999986589,-0.0599999986589,-0.0599999986589,-0.0599999986589,-0.0599999986589,-0.0599999986589,-0.0599999986589,-0.0599999986589,-0.0399999991059,-0.0599999986589,-0.0599999986589,-0.0599999986589,-0.0599999986589,-0.0499999970198,-0.0499999970198,-0.0399999991059,-0.0399999991059,-0.0399999991059,-0.0299999937415,-0.0299999937415,-0.0199999958277,-0.0199999958277,-0.0199999958277,-0.00999999791384,-0.00999999791384,-0.00999999791384,0,0,0.0100000053644,0.0100000053644,0.0100000053644,0.0100000053644,0.0100000053644,0.0100000053644,0.0100000053644,0.0100000053644,0.0100000053644,0.0100000053644,0.0100000053644,0.0100000053644,0.0200000107288,0.0200000107288,0.0200000107288,0.0200000107288,0.0200000107288,0.0200000107288,0.0200000107288,0.0200000107288,0.0200000107288,0.0100000053644,0.0100000053644,0.0100000053644,0.0100000053644,0.0100000053644,0.0100000053644,0.0100000053644,0,0,0,0,0,0,0,0,0,0,0,0,0
0,0,0,0,0,0,0,0,0,0,0.0100000053644,0.0100000053644,0.0100000053644,0.0100000053644,0.0100000053644,0.0200000107288,0.0200000107288,0.0200000107288,0.0300000086427,0.0300000086427,0.0300000086427,0.0300000086427,0.0300000086427,0.0300000086427,0.0300000086427,0.0300000086427,0.0300000086427,0.0300000086427,0.0300000086427,0.0300000086427,0.0200000107288,0.0200000107288,0.0200000107288,0.0200000107288,0.0200000107288,0.0200000107288,0.0100000053644,0.0100000053644,0.0400000102818,0.0400000102818,0.0300000049174,0.0100000053644,0,0,0,0,0,0,-0.00999999791384,-0.00999999791384,-0.00999999791384,-0.00999999791384,-0.00999999791384,-0.00999999791384,-0.0199999958277,-0.0199999958277,-0.0199999958277,-0.0199999958277,-0.0199999958277,-0.0199999958277,-0.0199999958277,-0.0199999958277,-0.0199999958277,-0.0199999958277,-0.00999999791384,-0.00999999791384,-0.00999999791384,0,0,0,0.0100000053644,0.0100000053644,0.0100000053644,0.0200000107288,0.0200000107288,0.0200000107288,0.0300000086427,0.0300000086427,0.0300000086427,0.0300000086427,0.0400000065565,0.0400000065565,0.0400000065565,0.0300000086427,0.0300000086427,0.0300000086427,0.0300000086427,0.0300000086427,0.0300000086427,0.0300000086427,0.0300000086427,0.0500000081956,0.0200000107288,0.0200000107288,0.0200000107288,0.0200000107288,0.0200000107288,0.0200000107288,0.0200000107288,0.0200000107288,0.0400000102818,0.0400000102818,0.0300000049174,0.0300000049174,0.0300000049174,0.0300000049174,0.019999999553,-0.00999999791384,-0.00999999791384,0.0100000016391,-0.0199999958277,-0.0199999958277,-0.0199999958277,-0.0199999958277,-0.0299999937415,-0.0299999937415,-0.0299999937415,-0.0399999991059,-0.0399999991059,-0.0399999991059,-0.0399999991059,-0.0499999970198,-0.0499999970198,-0.0499999970198,-0.0499999970198,-0.0499999970198,-0.0499999970198,-0.0499999970198,-0.0499999970198,-0.0499999970198,-0.0599999986589,-0.0599999986589,-0.0599999986589,-0.0599999986589,-0.0599999986589,-0.0599999986589,-0.0599999986589,-0.0599999986589,-0.070000000298,-0.070000000298,-0.070000000298,-0.0599999986589,-0.0599999986589,-0.0599999986589,-0.0499999970198,-0.0499999970198,-0.0399999991059,-0.0399999991059,-0.0399999991059,-0.0299999937415,-0.0299999937415,-0.0299999937415,-0.0199999958277,-0.0199999958277,-0.00999999791384,-0.00999999791384,-0.00999999791384,0,0,0.0100000053644,0.0100000053644,0.0100000053644,0.0100000053644,0.0100000053644,0.0100000053644,0.0100000053644,0.0100000053644,0.0100000053644,0.0200000107288,0.0200000107288,0.0200000107288,0.0200000107288,0.0200000107288,0.0200000107288,0.0200000107288,0.0200000107288,0.0200000107288,0.0200000107288,0.0200000107288,0.0200000107288,0.0200000107288,0.0200000107288,0.0100000053644,0.0100000053644,0.0100000053644,0.0100000053644,0.0100000053644,0.0100000053644,0,0,0,0,0,0,0,0,0,0,0,0
0,0,0,0,0,0,0,0,0.0100000053644,0.0100000053644,0.0100000053644,0.0100000053644,0.0100000053644,0.0100000053644,0.0200000107288,0.0200000107288,0.0200000107288,0.0200000107288,0.0300000086427,0.0300000086427,0.0300000086427,0.0300000086427,0.0300000086427,0.0300000086427,0.0300000086427,0.0300000086427,0.0300000086427,0.0300000086427,0.0300000086427,0.0200000107288,0.0200000107288,0.0200000107288,0.0200000107288,0.0200000107288,0.0100000053644,0.0100000053644,0.0100000053644,0.0100000053644,0.0100000053644,0,0.0300000049174,0.0300000049174,0.019999999553,0,0,-0.00999999791384,-0.00999999791384,-0.00999999791384,-0.00999999791384,-0.00999999791384,-0.00999999791384,-0.00999999791384,-0.0199999958277,-0.0199999958277,-0.0199999958277,-0.0199999958277,-0.0199999958277,-0.0199999958277,-0.0199999958277,-0.0299999937415,-0.0299999937415,-0.0199999958277,-0.0199999958277,-0.0199999958277,-0.00999999791384,-0.00999999791384,-0.00999999791384,0,0,0,0.0100000053644,0.0100000053644,0.0100000053644,0.0100000053644,0.0200000107288,0.0200000107288,0.0200000107288,0.0300000086427,0.0300000086427,0.0300000086427,0.0400000065565,0.0400000065565,0.0400000065565,0.0300000086427,0.0300000086427,0.0300000086427,0.0300000086427,0.0300000086427,0.0300000086427,0.0300000086427,0.0300000086427,0.0300000086427,0.0300000086427,0.0300000086427,0.0300000086427,0.0300000086427,0.0200000107288,0.0200000107288,0.0200000107288,0.0500000081956,0.0500000081956,0.0400000102818,0.0400000102818,0.0400000102818,0.0300000049174,0.0300000049174,0.0300000049174,0,0,0.019999999553,0.019999999553,0.0100000016391,-0.0199999958277,-0.0199999958277,3.72529029846e-09,-0.0299999937415,-0.0299999937415,-0.0299999937415,-0.0299999937415,-0.0399999991059,-0.0399999991059,-0.0399999991059,-0.0399999991059,-0.0499999970198,-0.0499999970198,-0.0499999970198,-0.0499999970198,-0.0499999970198,-0.0499999970198,-0.0499999970198,-0.0599999986589,-0.0599999986589,-0.0599999986589,-0.0599999986589,-0.0599999986589,-0.0599999986589,-0.0599999986589,-0.070000000298,-0.070000000298,-0.070000000298,-0.070000000298,-0.0399999991059,-0.0599999986589,-0.0599999986589,-0.0499999970198,-0.0499999970198,-0.0499999970198,-0.0399999991059,-0.0399999991059,-0.0299999937415,-0.0299999937415,-0.0299999937415,-0.0199999958277,-0.0199999958277,-0.00999999791384,-0.00999999791384,-0.00999999791384,0,0,0.0100000053644,0.0100000053644,0.0100000053644,0.0100000053644,0.0100000053644,0.0100000053644,0.0100000053644,0.0200000107288,0.0200000107288,0.0200000107288,0.0200000107288,0.0200000107288,0.0200000107288,0.0200000107288,0.0200000107288,0.0200000107288,0.0200000107288,0.0200000107288,0.0200000107288,0.0200000107288,0.0200000107288,0.0200000107288,0.0200000107288,0.0200000107288,0.0100000053644,0.0100000053644,0.0100000053644,0.0100000053644,0.0100000053644,0,0,0,0,0,0,0,0,0,0,0,0
0,0,0,0,0,0,0,0.0100000053644,0.0100000053644,0.0100000053644,0.0100000053644,0.0100000053644,0.0100000053644,0.0200000107288,0.0200000107288,0.0200000107288,0.0200000107288,0.0300000086427,0.0300000086427,0.0300000086427,0.0300000086427,0.0400000065565,0.0400000065565,0.0300000086427,0.0300000086427,0.0300000086427,0.0300000086427,0.0300000086427,0.0300000086427,0.0200000107288,0.0200000107288,0.0200000107288,0.0200000107288,0.0100000053644,0.0100000053644,0.0100000053644,0.0100000053644,0,0,0,0,-0.00999999791384,-0.00999999791384,-0.00999999791384,-0.00999999791384,-0.00999999791384,-0.00999999791384,-0.00999999791384,-0.00999999791384,-0.00999999791384,-0.0199999958277,-0.0199999958277,-0.0199999958277,-0.0199999958277,-0.0199999958277,-0.0199999958277,-0.0199999958277,-0.0199999958277,-0.0199999958277,-0.0299999937415,-0.0299999937415,-0.0199999958277,-0.0199999958277,-0.0199999958277,-0.00999999791384,-0.00999999791384,-0.00999999791384,0,0,0,0,0.0100000053644,0.0100000053644,0.0100000053644,0.0200000107288,0.0200000107288,0.0200000107288,0.0300000086427,0.0300000086427,0.0300000086427,0.0400000065565,0.0400000065565,0.0400000065565,0.0400000065565,0.0600000061095,0.0600000061095,0.0300000086427,0.0300000086427,0.0300000086427,0.0300000086427,0.0600000061095,0.0300000086427,0.0300000086427,0.0300000086427,0.0300000086427,0.0600000061095,0.0600000061095,0.0600000061095,0.0600000061095,0.0600000061095,0.0600000061095,0.0500000081956,0.0500000081956,0.0400000102818,0.0400000102818,0.0400000102818,0.0300000049174,0,0,0,0,0.019999999553,-0.00999999791384,-0.00999999791384,0.0100000016391,-0.0199999958277,-0.0199999958277,-0.0299999937415,-0.0299999937415,-0.0299999937415,-0.0399999991059,-0.0399999991059,-0.0399999991059,-0.0399999991059,-0.0399999991059,-0.0499999970198,-0.0499999970198,-0.0499999970198,-0.0499999970198,-0.0499999970198,-0.0499999970198,-0.0599999986589,-0.0599999986589,-0.0599999986589,-0.0599999986589,-0.0599999986589,-0.0599999986589,-0.070000000298,-0.070000000298,-0.070000000298,-0.070000000298,-0.070000000298,-0.0599999986589,-0.0599999986589,-0.0499999970198,-0.0499999970198,-0.0499999970198,-0.0399999991059,-0.0399999991059,-0.0299999937415,-0.0299999937415,-0.0299999937415,-0.0199999958277,-0.0199999958277,-0.00999999791384,-0.00999999791384,-0.00999999791384,0,0,0.0100000053644,0.0100000053644,0.0100000053644,0.0100000053644,0.0100000053644,0.0100000053644,0.0200000107288,0.0200000107288,0.0200000107288,0.0200000107288,0.0200000107288,0.0200000107288,0.0200000107288,0.0200000107288,0.0200000107288,0.0300000086427,0.0300000086427,0.0300000086427,0.0300000086427,0.0300000086427,0.0300000086427,0.0200000107288,0.0200000107288,0.0200000107288,0.0200000107288,0.0100000053644,0.0100000053644,0.0100000053644,0.0100000053644,0,0,0,0,0,0,0,0,0,0,0,0
